-0.140743 0.747861 0.489685 0.600000 0.300000 0.000000
0.246978 0.170431 -0.141301 0.500000 0.000000 0.500000
-0.260173 -0.582024 0.383376 0.500000 0.500000 0.000000
-0.139137 0.205846 0.432054 0.000000 1.000000 0.000000
-0.202161 0.013871 0.489685 0.600000 0.300000 0.000000
-0.055704 0.157004 0.472396 0.600000 0.300000 0.000000
-0.237121 0.546052 -0.133390 0.500000 0.500000 0.000000
-0.073853 -0.150195 0.111765 1.000000 0.000000 0.000000
0.031466 0.625086 -0.449698 0.000000 0.500000 0.500000
0.270031 -0.634424 0.095044 0.800000 0.200000 0.500000
0.177821 0.645947 0.314936 0.600000 0.000000 0.300000
0.188012 -0.567058 0.228758 0.300000 0.600000 0.000000
0.152160 -0.150195 -0.417748 1.000000 0.000000 0.000000
0.246978 0.450400 0.102170 0.500000 0.000000 0.500000
-0.260173 -0.815639 -0.076739 0.300000 0.000000 0.600000
-0.079866 -0.150195 0.039980 1.000000 0.000000 0.000000
0.000216 -0.261258 -0.426645 0.000000 0.500000 0.500000
-0.243354 0.673652 0.489685 0.600000 0.300000 0.000000
-0.260173 0.753891 0.031336 0.500000 0.500000 0.000000
0.149024 -0.497901 -0.400957 0.000000 0.000000 1.000000
0.126052 0.636008 0.432054 0.600000 0.300000 0.000000
0.006783 0.506099 -0.426645 0.000000 0.500000 0.500000
0.270031 0.251164 -0.212140 0.500000 0.000000 0.500000
-0.097759 -0.484951 -0.426645 0.000000 0.500000 0.500000
0.137991 -0.150195 0.303063 1.000000 0.000000 0.000000
0.041699 0.362865 -0.426645 0.000000 0.500000 0.500000
-0.059069 0.214801 -0.197617 0.000000 1.000000 0.000000
-0.237121 -0.299688 -0.362483 0.500000 0.500000 0.000000
-0.260173 -0.089891 -0.467376 0.500000 0.500000 0.000000
-0.264577 0.053960 0.455107 0.000000 0.000000 1.000000
0.177821 -0.120323 -0.078334 0.600000 0.300000 0.000000
0.246978 -0.403543 -0.002918 0.500000 0.000000 0.500000
0.270031 -0.700622 -0.334615 0.800000 0.200000 0.500000
0.246978 -0.308980 0.177627 0.500000 0.000000 0.500000
-0.187019 0.016975 -0.369014 0.000000 1.000000 0.000000
-0.237121 0.333514 -0.308012 0.500000 0.500000 0.000000
0.200874 0.240300 0.224989 0.300000 0.000000 0.600000
0.200874 0.147495 -0.382019 1.000000 0.000000 0.000000
-0.167964 0.264942 0.047903 0.000000 1.000000 0.000000
0.017804 -0.567058 -0.235785 0.300000 0.600000 0.000000
-0.029830 -0.326298 0.472396 0.600000 0.300000 0.000000
0.281557 0.082502 0.452053 0.500000 0.000000 0.500000
-0.260173 -0.438723 -0.167294 0.500000 0.500000 0.000000
0.086948 0.005760 0.432054 0.600000 0.300000 0.000000
-0.048259 0.703372 0.420528 0.600000 0.000000 0.300000
-0.260173 -0.462417 0.325081 0.500000 0.500000 0.000000
-0.237121 -0.188341 0.373300 0.500000 0.500000 0.000000
-0.076643 -0.366050 0.472396 0.600000 0.300000 0.000000
0.270031 0.176396 0.204898 0.500000 0.000000 0.500000
-0.237121 0.619175 0.357369 0.500000 0.500000 0.000000
-0.083093 0.002889 -0.461224 0.000000 0.500000 0.500000
-0.041735 -0.085758 0.472396 0.600000 0.300000 0.000000
-0.135650 -0.520953 -0.088791 0.000000 0.000000 1.000000
0.270031 0.017053 -0.195196 0.500000 0.000000 0.500000
-0.061952 -0.567058 -0.389703 0.300000 0.600000 0.000000
-0.136261 0.660758 0.432054 0.600000 0.300000 0.000000
-0.150947 -0.567058 0.351250 0.300000 0.600000 0.000000
-0.066193 -0.701147 0.311030 0.600000 0.300000 0.000000
-0.260173 -0.692626 -0.263481 0.300000 0.000000 0.600000
0.088779 -0.375494 0.472396 0.600000 0.300000 0.000000
-0.130418 0.131382 0.432054 0.600000 0.300000 0.000000
-0.237121 0.224193 -0.235948 0.500000 0.500000 0.000000
0.269700 0.758451 0.355202 0.500000 0.000000 0.500000
-0.167964 -0.075015 -0.432226 0.000000 1.000000 0.000000
0.188012 0.180810 -0.478513 0.000000 0.500000 0.500000
0.001289 -0.215307 0.472396 0.600000 0.300000 0.000000
0.122859 -0.567058 0.393525 0.300000 0.600000 0.000000
-0.181516 0.088406 0.489685 0.600000 0.300000 0.000000
0.224799 0.437021 -0.461224 0.000000 0.500000 0.500000
0.270031 0.029433 -0.098943 0.500000 0.000000 0.500000
-0.260173 0.438173 -0.112066 0.500000 0.500000 0.000000
-0.091127 -0.561295 -0.497824 0.600000 0.000000 0.300000
-0.260173 -0.596876 0.144978 0.500000 0.500000 0.000000
-0.237121 -0.262508 -0.077794 0.500000 0.500000 0.000000
0.129343 -0.150195 -0.009808 1.000000 0.000000 0.000000
-0.201284 0.750931 -0.478513 0.800000 0.200000 0.500000
0.022802 -0.520953 0.085432 0.000000 0.000000 1.000000
0.079825 -0.561295 -0.510598 0.600000 0.000000 0.300000
0.270031 0.382117 0.036056 0.500000 0.000000 0.500000
-0.260173 -0.612013 -0.103669 0.500000 0.500000 0.000000
-0.044146 -0.764641 0.311030 0.600000 0.300000 0.000000
-0.167964 -0.519953 -0.267312 0.000000 0.000000 1.000000
-0.169208 0.069328 0.374423 0.500000 0.500000 0.000000
0.199687 -0.075275 0.227401 0.600000 0.300000 0.000000
0.249267 0.747018 -0.513091 0.500000 0.000000 0.500000
0.270031 0.241948 0.006861 0.500000 0.000000 0.500000
-0.237121 0.174352 -0.379744 0.500000 0.500000 0.000000
0.007623 -0.567058 0.190079 0.300000 0.600000 0.000000
0.098610 -0.497901 -0.111750 0.000000 0.000000 1.000000
0.246978 -0.009491 -0.146239 0.500000 0.000000 0.500000
0.246978 0.602847 -0.442716 0.500000 0.000000 0.500000
-0.140585 0.421410 -0.478513 0.000000 0.500000 0.500000
0.075053 0.257312 -0.449698 0.000000 0.500000 0.500000
-0.010576 -0.239524 -0.478513 0.000000 0.500000 0.500000
-0.237121 -0.222860 -0.267740 0.500000 0.500000 0.000000
0.089752 -0.454749 0.472396 0.600000 0.300000 0.000000
-0.260173 0.452787 0.408871 0.500000 0.500000 0.000000
-0.191016 -0.522589 -0.403052 0.000000 1.000000 0.000000
0.177821 0.242660 0.272763 0.300000 0.000000 0.600000
0.246978 0.627362 0.154636 0.500000 0.000000 0.500000
-0.260173 0.265261 -0.077422 0.500000 0.500000 0.000000
-0.006012 0.191510 -0.461224 0.000000 0.500000 0.500000
0.200874 -0.484904 -0.008549 0.300000 0.000000 0.600000
-0.260173 -0.364843 0.361878 0.500000 0.500000 0.000000
-0.237121 -0.465979 0.226238 0.500000 0.500000 0.000000
-0.226811 0.747729 0.420528 0.000000 0.000000 1.000000
-0.237121 0.493750 -0.057013 0.500000 0.500000 0.000000
-0.260173 -0.539248 -0.172809 0.500000 0.500000 0.000000
0.177821 -0.117069 0.090749 0.600000 0.300000 0.000000
-0.028443 0.308075 0.472396 0.600000 0.300000 0.000000
-0.237121 -0.475140 -0.306196 0.500000 0.500000 0.000000
0.166500 0.362205 -0.426645 0.000000 0.500000 0.500000
0.160435 0.214801 -0.159104 0.000000 1.000000 0.000000
-0.059110 -0.095610 -0.426645 0.000000 0.500000 0.500000
-0.109654 -0.520953 0.005566 0.000000 0.000000 1.000000
-0.260173 0.461444 -0.513045 0.500000 0.500000 0.000000
-0.260173 -0.483188 -0.492943 0.500000 0.500000 0.000000
-0.237121 0.139929 0.066975 0.500000 0.500000 0.000000
-0.150731 0.666242 -0.429191 0.000000 0.500000 0.500000
0.246978 0.382973 0.327483 0.500000 0.000000 0.500000
0.246978 -0.320946 0.253164 0.500000 0.000000 0.500000
0.246978 0.485838 -0.158183 0.500000 0.000000 0.500000
-0.126020 0.599894 0.432054 0.600000 0.300000 0.000000
0.270031 -0.773314 -0.091001 0.800000 0.200000 0.500000
0.270031 -0.163536 -0.382885 0.500000 0.000000 0.500000
-0.271699 -0.165586 0.444556 0.000000 0.000000 1.000000
-0.106064 0.705160 -0.513092 0.800000 0.200000 0.500000
-0.252066 0.364684 -0.513091 0.500000 0.500000 0.000000
-0.087834 0.197511 -0.308918 0.000000 1.000000 0.000000
-0.260173 -0.046834 -0.302433 0.500000 0.500000 0.000000
0.177758 0.281553 0.455107 0.600000 0.300000 0.000000
0.001650 0.142556 0.472396 0.600000 0.300000 0.000000
0.227289 -0.257050 -0.478513 0.000000 0.500000 0.500000
0.177821 -0.115205 0.256999 0.600000 0.300000 0.000000
-0.237121 0.057832 -0.470694 0.500000 0.500000 0.000000
0.270031 0.310682 -0.048177 0.500000 0.000000 0.500000
-0.191016 -0.085496 0.340864 1.000000 0.000000 0.000000
0.138961 0.214801 0.123946 0.000000 1.000000 0.000000
0.246978 -0.493325 -0.182419 0.500000 0.000000 0.500000
-0.226364 0.129054 -0.478513 0.000000 0.500000 0.500000
-0.172875 -0.415549 -0.449698 0.000000 1.000000 0.000000
-0.196749 -0.567058 0.154411 0.300000 0.600000 0.000000
-0.263054 0.493731 0.464410 0.600000 0.300000 0.000000
0.246978 0.094482 -0.264096 0.500000 0.000000 0.500000
-0.189462 0.552752 -0.369014 0.000000 1.000000 0.000000
0.175313 0.197511 -0.212913 0.000000 1.000000 0.000000
-0.237121 -0.030526 0.391220 0.500000 0.500000 0.000000
-0.191016 0.232012 -0.093909 0.000000 1.000000 0.000000
-0.124740 -0.573611 0.485283 0.600000 0.300000 0.000000
-0.167964 -0.458805 0.191541 0.000000 0.000000 1.000000
-0.237121 0.499715 -0.185947 0.500000 0.500000 0.000000
-0.191016 -0.501433 0.119240 0.000000 0.000000 1.000000
0.072658 -0.520953 0.155662 0.000000 0.000000 1.000000
-0.018948 -0.567058 0.342421 0.300000 0.600000 0.000000
-0.260173 -0.198317 -0.443625 0.500000 0.500000 0.000000
0.246978 0.705656 -0.067174 0.600000 0.000000 0.300000
0.270031 -0.685559 -0.158892 0.800000 0.200000 0.500000
-0.270185 0.105410 0.455107 0.000000 0.000000 1.000000
-0.260173 -0.535749 -0.297103 0.500000 0.500000 0.000000
0.270031 -0.016407 -0.434895 0.500000 0.000000 0.500000
0.082118 0.214801 -0.018710 0.000000 1.000000 0.000000
0.246978 0.138685 0.023524 0.500000 0.000000 0.500000
0.079570 -0.382142 -0.449698 0.000000 0.500000 0.500000
0.246978 -0.424677 0.293685 0.500000 0.000000 0.500000
-0.075535 -0.167484 -0.046740 1.000000 0.000000 0.000000
-0.159389 0.514616 -0.478513 0.000000 0.500000 0.500000
-0.114982 -0.665101 -0.513092 0.600000 0.000000 0.300000
0.225389 -0.218033 0.489685 0.600000 0.300000 0.000000
-0.260173 0.558771 -0.446759 0.500000 0.500000 0.000000
0.177821 0.286662 -0.206728 0.300000 0.000000 0.600000
0.177821 0.215106 -0.415183 1.000000 0.000000 0.000000
-0.260173 -0.706167 -0.121900 0.300000 0.000000 0.600000
-0.260173 -0.599960 -0.382256 0.500000 0.500000 0.000000
0.270031 -0.274489 0.093705 0.500000 0.000000 0.500000
-0.237121 -0.454861 -0.006722 0.500000 0.500000 0.000000
-0.167964 -0.159021 -0.044084 1.000000 0.000000 0.000000
0.246978 0.554168 -0.085924 0.500000 0.000000 0.500000
-0.027560 -0.779542 -0.513092 0.600000 0.000000 0.300000
-0.260173 -0.520169 0.382761 0.500000 0.500000 0.000000
0.246978 -0.059865 -0.220188 0.500000 0.000000 0.500000
0.170288 -0.605734 0.420528 0.300000 0.600000 0.000000
0.270031 0.497679 0.006663 0.500000 0.000000 0.500000
0.200874 0.060210 0.417132 0.000000 0.500000 0.500000
-0.191016 0.628486 -0.345121 0.500000 0.500000 0.000000
0.083088 0.115147 -0.478513 0.000000 0.500000 0.500000
-0.069367 -0.567058 0.159352 0.300000 0.600000 0.000000
0.270031 -0.309283 0.003997 0.500000 0.000000 0.500000
-0.002151 -0.520953 -0.101759 0.000000 0.000000 1.000000
0.149820 0.700821 -0.206949 0.600000 0.000000 0.300000
-0.256769 0.014459 0.489685 0.600000 0.300000 0.000000
0.183813 -0.444764 -0.369014 1.000000 0.000000 0.000000
-0.260173 -0.545023 -0.396666 0.500000 0.500000 0.000000
0.042768 0.689294 0.453875 0.600000 0.000000 0.300000
-0.167964 0.481018 0.387243 0.500000 0.500000 0.000000
0.138795 0.426861 -0.478513 0.000000 0.500000 0.500000
-0.064195 0.218139 0.432054 0.600000 0.300000 0.000000
-0.219794 -0.567058 -0.283662 0.300000 0.600000 0.000000
0.124015 0.197511 -0.261422 0.000000 1.000000 0.000000
0.155614 -0.497901 -0.261886 0.000000 0.000000 1.000000
-0.231568 0.511563 0.420528 0.000000 0.000000 1.000000
-0.237121 -0.106624 -0.507923 0.500000 0.500000 0.000000
0.142615 0.510954 -0.478513 0.000000 0.500000 0.500000
0.056669 -0.520953 0.408960 0.000000 0.000000 1.000000
0.270031 -0.314010 -0.340119 0.500000 0.000000 0.500000
-0.260173 -0.349998 -0.329838 0.500000 0.500000 0.000000
0.179790 0.031594 0.374423 0.000000 0.500000 0.500000
0.246978 0.678570 0.405694 0.500000 0.000000 0.500000
0.245880 -0.251498 0.420528 0.500000 0.000000 0.500000
0.153201 0.714254 0.420528 0.600000 0.000000 0.300000
-0.237121 0.135521 0.378733 0.500000 0.500000 0.000000
0.246978 -0.230974 0.215939 0.500000 0.000000 0.500000
-0.166196 -0.150195 -0.318121 1.000000 0.000000 0.000000
0.200874 -0.320085 -0.384804 1.000000 0.000000 0.000000
0.246978 -0.589176 -0.125013 0.500000 0.000000 0.500000
-0.148829 0.076891 -0.449698 0.000000 0.500000 0.500000
0.246978 0.626932 -0.111596 0.500000 0.000000 0.500000
-0.260173 -0.552031 0.245972 0.500000 0.500000 0.000000
-0.260173 -0.422151 0.371373 0.500000 0.500000 0.000000
0.077040 -0.150195 -0.104745 1.000000 0.000000 0.000000
-0.099127 0.323888 -0.478513 0.000000 0.500000 0.500000
-0.271699 -0.115156 0.443057 0.000000 0.000000 1.000000
-0.237121 0.234835 -0.293402 0.500000 0.500000 0.000000
-0.237121 0.187407 0.304515 0.500000 0.500000 0.000000
0.017454 -0.555532 0.427885 0.300000 0.600000 0.000000
0.270031 0.204996 -0.235275 0.500000 0.000000 0.500000
-0.191016 0.118119 0.374424 0.500000 0.500000 0.000000
-0.191016 0.378927 0.385060 0.500000 0.500000 0.000000
-0.263054 -0.534144 0.463814 0.600000 0.300000 0.000000
0.270031 0.175285 -0.071186 0.500000 0.000000 0.500000
0.064404 -0.059833 0.472396 0.600000 0.300000 0.000000
-0.260173 -0.688616 0.157520 0.300000 0.000000 0.600000
0.095358 -0.307171 -0.478513 0.000000 0.500000 0.500000
-0.237121 0.132007 0.233988 0.500000 0.500000 0.000000
-0.237121 -0.278086 -0.018178 0.500000 0.500000 0.000000
-0.184606 -0.158790 -0.478513 0.000000 0.500000 0.500000
-0.237121 0.086268 0.327748 0.500000 0.500000 0.000000
-0.169882 -0.167484 -0.203566 1.000000 0.000000 0.000000
-0.004166 -0.150195 0.185728 1.000000 0.000000 0.000000
0.229038 -0.402206 0.455107 0.500000 0.000000 0.500000
-0.237121 -0.150718 0.065696 0.500000 0.500000 0.000000
-0.237121 0.605173 -0.306215 0.500000 0.500000 0.000000
-0.188147 -0.481876 0.374423 0.500000 0.500000 0.000000
0.059320 -0.161297 -0.426645 0.000000 0.500000 0.500000
-0.260173 0.305809 0.141239 0.500000 0.500000 0.000000
-0.122210 -0.099695 0.455107 0.600000 0.300000 0.000000
0.246978 0.630582 -0.257051 0.500000 0.000000 0.500000
0.200874 0.241862 0.347652 0.300000 0.000000 0.600000
0.097722 0.570610 -0.426645 0.000000 0.500000 0.500000
-0.030297 0.552154 0.472396 0.600000 0.300000 0.000000
0.246978 -0.412752 0.393836 0.500000 0.000000 0.500000
0.079992 0.700821 -0.238829 0.600000 0.000000 0.300000
-0.260173 -0.280056 0.272570 0.500000 0.500000 0.000000
0.147517 -0.010046 -0.426645 0.000000 0.500000 0.500000
-0.260173 0.179379 -0.465238 0.500000 0.500000 0.000000
0.195590 0.367581 0.489685 0.600000 0.300000 0.000000
0.076411 0.509561 -0.478513 0.000000 0.500000 0.500000
-0.237121 0.066078 0.069681 0.500000 0.500000 0.000000
0.101330 0.749807 0.489684 0.600000 0.300000 0.000000
0.102140 0.214801 -0.346775 0.000000 1.000000 0.000000
0.237677 0.128403 -0.461224 0.000000 0.500000 0.500000
-0.260173 0.024464 -0.382455 0.500000 0.500000 0.000000
0.106156 0.713892 -0.513092 0.800000 0.200000 0.500000
-0.260173 -0.023691 0.079234 0.500000 0.500000 0.000000
0.053452 -0.669636 0.311030 0.600000 0.300000 0.000000
0.034232 -0.567058 0.335486 0.300000 0.600000 0.000000
0.270031 -0.225890 -0.473442 0.500000 0.000000 0.500000
-0.204382 -0.426748 0.420528 0.000000 0.000000 1.000000
-0.191016 0.580670 -0.445656 0.000000 1.000000 0.000000
0.019687 0.049769 0.472396 0.600000 0.300000 0.000000
-0.260173 0.400919 0.220404 0.500000 0.500000 0.000000
-0.066254 -0.396558 0.432054 0.600000 0.300000 0.000000
0.246978 0.501666 0.203848 0.500000 0.000000 0.500000
-0.044261 0.109949 0.455107 0.600000 0.300000 0.000000
-0.271699 -0.364581 0.450815 0.000000 0.000000 1.000000
-0.191016 -0.215856 -0.387518 0.000000 1.000000 0.000000
-0.260173 -0.753021 -0.473967 0.300000 0.000000 0.600000
-0.040956 0.214801 0.216141 0.000000 1.000000 0.000000
0.025611 -0.150195 0.389578 1.000000 0.000000 0.000000
0.046699 -0.520953 -0.379634 0.000000 0.000000 1.000000
-0.221663 0.723873 -0.141362 0.600000 0.000000 0.300000
-0.184758 0.289721 0.362964 0.000000 1.000000 0.000000
0.138344 -0.293361 -0.426645 0.000000 0.500000 0.500000
-0.260173 0.745078 -0.469518 0.500000 0.500000 0.000000
0.257942 0.426246 -0.513091 0.500000 0.000000 0.500000
0.270031 0.676471 -0.217611 0.500000 0.000000 0.500000
0.246978 0.552180 -0.502516 0.500000 0.000000 0.500000
0.200874 0.628900 0.009843 0.600000 0.000000 0.300000
0.212390 -0.567058 0.351341 0.300000 0.600000 0.000000
0.177821 -0.080518 -0.437265 1.000000 0.000000 0.000000
0.211990 -0.610244 0.489685 0.600000 0.300000 0.000000
-0.062465 -0.158583 0.432054 0.600000 0.300000 0.000000
0.270031 0.202786 0.262214 0.500000 0.000000 0.500000
-0.167964 -0.524499 0.442501 0.600000 0.300000 0.000000
-0.230125 -0.831479 0.311030 0.600000 0.300000 0.000000
0.103400 0.638621 -0.513092 0.800000 0.200000 0.500000
-0.042074 -0.138083 0.472396 0.600000 0.300000 0.000000
0.200874 -0.177938 -0.427215 1.000000 0.000000 0.000000
-0.237121 0.215409 -0.154793 0.500000 0.500000 0.000000
0.222093 0.705461 -0.513092 0.800000 0.200000 0.500000
-0.030239 -0.567058 -0.346782 0.300000 0.600000 0.000000
-0.191016 0.259655 -0.262190 0.000000 1.000000 0.000000
-0.260173 0.662841 -0.343188 0.500000 0.500000 0.000000
0.024425 -0.520953 0.321612 0.000000 0.000000 1.000000
-0.005696 -0.337737 0.432054 0.600000 0.300000 0.000000
-0.141608 0.346321 -0.426645 0.000000 0.500000 0.500000
-0.173685 -0.576717 -0.461224 0.000000 0.500000 0.500000
-0.237121 -0.278966 0.339455 0.500000 0.500000 0.000000
0.150693 -0.750661 -0.513092 0.600000 0.000000 0.300000
-0.237121 -0.058116 0.022887 0.500000 0.500000 0.000000
0.139993 -0.567058 0.139699 0.300000 0.600000 0.000000
-0.035409 -0.002558 0.432054 0.600000 0.300000 0.000000
-0.155359 -0.167484 -0.119351 1.000000 0.000000 0.000000
0.270031 0.145341 -0.198020 0.500000 0.000000 0.500000
-0.138501 -0.150195 -0.171149 1.000000 0.000000 0.000000
-0.163268 0.609644 0.489685 0.600000 0.300000 0.000000
-0.237121 -0.551525 0.002632 0.500000 0.500000 0.000000
-0.191016 -0.124656 0.197444 1.000000 0.000000 0.000000
-0.237121 -0.358462 -0.044691 0.500000 0.500000 0.000000
0.249040 0.626452 0.455107 0.500000 0.000000 0.500000
0.102618 -0.567058 -0.105990 0.300000 0.600000 0.000000
-0.260173 0.556236 0.118379 0.500000 0.500000 0.000000
-0.249057 -0.201710 -0.513091 0.500000 0.500000 0.000000
-0.237121 0.710805 -0.203577 0.500000 0.500000 0.000000
-0.088849 -0.766939 -0.513092 0.600000 0.000000 0.300000
-0.132827 -0.491717 0.489685 0.600000 0.300000 0.000000
-0.202780 0.235686 0.489685 0.600000 0.300000 0.000000
0.065250 -0.567058 0.258335 0.300000 0.600000 0.000000
0.193495 -0.167484 -0.341223 0.600000 0.300000 0.000000
0.098512 -0.825732 0.311030 0.600000 0.300000 0.000000
-0.003251 -0.444721 0.472396 0.600000 0.300000 0.000000
-0.260173 0.582081 0.038212 0.500000 0.500000 0.000000
0.270031 -0.417625 0.129829 0.500000 0.000000 0.500000
0.039559 0.214801 -0.107586 0.000000 1.000000 0.000000
0.200874 -0.135188 0.371790 0.600000 0.300000 0.000000
0.011887 0.679694 0.489685 0.600000 0.300000 0.000000
-0.160538 0.697454 -0.513092 0.800000 0.200000 0.500000
-0.058410 0.397531 0.432054 0.600000 0.300000 0.000000
-0.022005 -0.167484 0.028161 1.000000 0.000000 0.000000
-0.237121 -0.166390 -0.193344 0.500000 0.500000 0.000000
0.270031 0.255908 0.187351 0.500000 0.000000 0.500000
-0.121067 -0.520953 -0.337741 0.000000 0.000000 1.000000
0.193337 -0.075275 -0.064526 0.600000 0.300000 0.000000
0.270031 -0.419403 -0.270191 0.500000 0.000000 0.500000
-0.142121 -0.497901 0.122100 0.000000 0.000000 1.000000
0.270031 0.503782 0.084082 0.500000 0.000000 0.500000
0.188150 0.289721 -0.105855 0.300000 0.000000 0.600000
-0.131258 -0.150195 0.342692 1.000000 0.000000 0.000000
0.036250 -0.480177 0.432054 0.600000 0.300000 0.000000
0.183001 -0.832060 -0.513092 0.600000 0.000000 0.300000
0.079114 -0.520953 0.253495 0.000000 0.000000 1.000000
-0.260173 0.269832 0.094952 0.500000 0.500000 0.000000
0.061856 0.214801 0.101840 0.000000 1.000000 0.000000
0.246978 0.314240 -0.397645 0.500000 0.000000 0.500000
0.191115 0.080997 -0.478513 0.000000 0.500000 0.500000
0.211363 -0.302227 -0.478513 0.000000 0.500000 0.500000
-0.214505 0.110578 0.420528 0.000000 0.000000 1.000000
-0.237121 0.549800 0.174282 0.500000 0.500000 0.000000
0.221696 0.331326 0.420528 0.500000 0.000000 0.500000
-0.091552 -0.167484 0.193882 1.000000 0.000000 0.000000
-0.144808 0.090871 0.455107 0.600000 0.300000 0.000000
-0.260173 0.415023 -0.322940 0.500000 0.500000 0.000000
-0.237121 -0.003184 0.037379 0.500000 0.500000 0.000000
0.170326 -0.019489 -0.478513 0.000000 0.500000 0.500000
0.144877 0.758169 -0.478513 0.800000 0.200000 0.500000
0.270031 -0.470198 -0.122790 0.500000 0.000000 0.500000
0.270031 -0.667666 -0.101571 0.800000 0.200000 0.500000
0.012327 0.232098 -0.478513 0.000000 0.500000 0.500000
-0.260173 -0.357961 0.305620 0.500000 0.500000 0.000000
-0.209852 0.608769 0.455107 0.000000 0.000000 1.000000
0.200874 -0.508515 -0.335451 0.300000 0.000000 0.600000
-0.196185 0.735908 0.455107 0.600000 0.300000 0.000000
0.246978 0.566111 -0.221459 0.500000 0.000000 0.500000
-0.260173 0.179452 -0.228627 0.500000 0.500000 0.000000
0.180840 -0.532479 -0.133631 0.300000 0.000000 0.600000
0.022085 -0.259395 0.432054 0.600000 0.300000 0.000000
-0.191016 0.242777 0.156337 0.000000 1.000000 0.000000
0.020470 0.600948 0.472396 0.600000 0.300000 0.000000
0.170145 0.159212 0.489685 0.600000 0.300000 0.000000
-0.149540 -0.315353 -0.426645 0.000000 0.500000 0.500000
-0.260173 0.123998 -0.381929 0.500000 0.500000 0.000000
0.159586 -0.298022 0.455107 0.600000 0.300000 0.000000
0.246978 -0.092377 -0.386978 0.500000 0.000000 0.500000
-0.161735 -0.495585 -0.478513 0.000000 0.500000 0.500000
-0.271699 0.669355 0.444045 0.000000 0.000000 1.000000
0.059233 0.300050 0.432054 0.600000 0.300000 0.000000
0.200874 -0.504249 -0.430803 1.000000 0.000000 0.000000
0.234143 0.700821 -0.303318 0.600000 0.000000 0.300000
0.270031 0.092500 0.139212 0.500000 0.000000 0.500000
-0.237121 -0.598035 0.317033 0.500000 0.500000 0.000000
0.258479 -0.183993 0.489685 0.600000 0.300000 0.000000
-0.260173 -0.301370 0.111352 0.500000 0.500000 0.000000
0.238249 0.700821 -0.163705 0.600000 0.000000 0.300000
0.270031 -0.087192 0.341166 0.500000 0.000000 0.500000
0.246978 -0.073551 0.237427 0.500000 0.000000 0.500000
-0.260173 -0.581443 0.058425 0.500000 0.500000 0.000000
0.246978 0.125057 -0.067062 0.500000 0.000000 0.500000
0.246978 -0.086646 -0.122882 0.500000 0.000000 0.500000
0.246978 0.057964 -0.188512 0.500000 0.000000 0.500000
0.246978 0.131996 0.298117 0.500000 0.000000 0.500000
-0.192877 -0.313535 0.455107 0.600000 0.300000 0.000000
-0.237121 -0.240148 0.389271 0.500000 0.500000 0.000000
-0.191016 -0.461872 -0.392625 0.000000 1.000000 0.000000
-0.237121 -0.616088 -0.202206 0.500000 0.500000 0.000000
-0.260173 -0.815559 -0.197510 0.300000 0.000000 0.600000
0.010743 0.700821 -0.400294 0.600000 0.000000 0.300000
0.246978 -0.148360 -0.276411 0.500000 0.000000 0.500000
0.148024 -0.230050 0.432054 0.600000 0.300000 0.000000
-0.191016 -0.288740 -0.409905 0.000000 1.000000 0.000000
0.270031 -0.585078 0.379816 0.500000 0.000000 0.500000
0.179612 0.249270 0.489685 0.600000 0.300000 0.000000
0.200052 0.615460 -0.478513 0.000000 0.500000 0.500000
0.065516 0.723873 -0.461645 0.600000 0.000000 0.300000
-0.167964 -0.126871 -0.386960 0.000000 1.000000 0.000000
0.270031 0.391931 -0.272405 0.500000 0.000000 0.500000
-0.167964 0.619328 0.229832 0.500000 0.500000 0.000000
-0.132530 0.600572 -0.426645 0.000000 0.500000 0.500000
0.200874 0.288324 0.287424 0.300000 0.000000 0.600000
0.001545 -0.167484 0.245909 1.000000 0.000000 0.000000
-0.223886 0.723873 -0.280131 0.600000 0.000000 0.300000
-0.053465 -0.061443 0.432054 0.600000 0.300000 0.000000
-0.237121 -0.364126 0.129737 0.500000 0.500000 0.000000
0.247638 -0.213475 -0.513091 0.500000 0.000000 0.500000
-0.116469 -0.567058 0.319047 0.300000 0.600000 0.000000
0.152235 -0.505327 0.432054 0.600000 0.300000 0.000000
-0.144979 -0.150195 0.019357 1.000000 0.000000 0.000000
-0.167964 -0.469858 -0.154228 0.000000 0.000000 1.000000
0.246978 -0.545907 -0.094409 0.500000 0.000000 0.500000
-0.237121 -0.464559 -0.447729 0.500000 0.500000 0.000000
-0.237121 0.396841 0.375290 0.500000 0.500000 0.000000
0.207553 -0.593605 0.311030 0.600000 0.300000 0.000000
-0.187618 -0.451796 -0.067557 0.000000 0.000000 1.000000
0.270031 0.650137 0.254226 0.500000 0.000000 0.500000
0.177821 0.242121 0.153935 0.300000 0.000000 0.600000
-0.167964 -0.119700 0.135610 1.000000 0.000000 0.000000
0.036789 -0.567058 -0.190108 0.300000 0.600000 0.000000
0.237894 0.054080 0.455107 0.500000 0.000000 0.500000
-0.049288 -0.520953 0.277233 0.000000 0.000000 1.000000
0.065129 -0.807381 -0.513092 0.600000 0.000000 0.300000
-0.096594 -0.014430 0.472396 0.600000 0.300000 0.000000
-0.133157 -0.411525 0.432054 0.600000 0.300000 0.000000
0.193154 -0.398627 -0.369014 1.000000 0.000000 0.000000
-0.237121 0.436597 -0.358709 0.500000 0.500000 0.000000
-0.237121 0.641554 -0.129104 0.500000 0.500000 0.000000
0.064253 0.326641 -0.478513 0.000000 0.500000 0.500000
-0.091564 0.210018 0.472396 0.600000 0.300000 0.000000
0.212400 0.210372 0.422590 0.500000 0.000000 0.500000
-0.066317 -0.520953 -0.012707 0.000000 0.000000 1.000000
0.202479 -0.447180 0.489685 0.600000 0.300000 0.000000
0.025096 0.387451 -0.478513 0.000000 0.500000 0.500000
0.213999 -0.212423 0.420528 0.500000 0.000000 0.500000
0.246978 0.255385 0.124283 0.500000 0.000000 0.500000
-0.189201 -0.451796 0.293536 0.000000 0.000000 1.000000
0.094666 -0.462547 -0.449698 0.000000 0.500000 0.500000
-0.260173 -0.765634 -0.268045 0.300000 0.000000 0.600000
-0.260173 0.652058 0.390478 0.500000 0.500000 0.000000
-0.098358 -0.300846 0.455107 0.600000 0.300000 0.000000
0.246978 0.712883 0.038636 0.500000 0.000000 0.500000
-0.237121 0.270707 0.188568 0.500000 0.500000 0.000000
0.172140 0.274286 -0.461224 0.000000 0.500000 0.500000
0.092618 -0.318661 0.432054 0.600000 0.300000 0.000000
-0.232973 0.700821 -0.101444 0.600000 0.000000 0.300000
0.052345 -0.528470 0.455107 0.600000 0.300000 0.000000
-0.147030 -0.567058 0.243614 0.300000 0.600000 0.000000
-0.260173 0.114534 0.166639 0.500000 0.500000 0.000000
-0.052893 -0.520953 -0.201402 0.000000 0.000000 1.000000
0.270031 -0.586882 -0.012437 0.500000 0.000000 0.500000
-0.002376 0.133548 -0.478513 0.000000 0.500000 0.500000
0.246978 -0.322656 0.384846 0.500000 0.000000 0.500000
0.179232 0.723873 -0.435923 0.600000 0.000000 0.300000
0.068938 0.166513 0.455107 0.600000 0.300000 0.000000
-0.067430 0.214801 0.124488 0.000000 1.000000 0.000000
0.072300 -0.567058 0.085366 0.300000 0.600000 0.000000
-0.008116 0.723873 -0.234486 0.600000 0.000000 0.300000
-0.076204 0.197511 0.349070 0.000000 1.000000 0.000000
0.281557 0.705421 0.431233 0.500000 0.000000 0.500000
-0.077132 0.214801 -0.153288 0.000000 1.000000 0.000000
-0.167964 0.250571 -0.382306 0.000000 1.000000 0.000000
-0.185658 0.097912 -0.478513 0.000000 0.500000 0.500000
0.090535 -0.199838 0.432054 0.600000 0.300000 0.000000
-0.209735 0.705878 -0.513092 0.800000 0.200000 0.500000
-0.191016 -0.088666 -0.064540 1.000000 0.000000 0.000000
-0.032287 -0.623909 -0.513092 0.600000 0.000000 0.300000
-0.091492 -0.497901 -0.105969 0.000000 0.000000 1.000000
-0.143263 0.723873 -0.161785 0.600000 0.000000 0.300000
0.246978 0.082615 -0.015219 0.500000 0.000000 0.500000
0.200874 0.610123 0.365309 0.600000 0.000000 0.300000
0.200874 -0.505889 0.049289 0.300000 0.000000 0.600000
0.000824 0.044509 -0.478513 0.000000 0.500000 0.500000
0.197965 -0.499900 0.374423 0.000000 0.500000 0.500000
0.155033 -0.370342 -0.449698 0.000000 0.500000 0.500000
-0.237121 0.705871 -0.015012 0.500000 0.500000 0.000000
0.093556 0.197511 0.335988 0.000000 1.000000 0.000000
-0.131843 -0.167484 -0.370797 1.000000 0.000000 0.000000
-0.237121 -0.172140 0.205448 0.500000 0.500000 0.000000
0.270031 0.446468 0.380563 0.500000 0.000000 0.500000
0.246978 -0.261789 -0.258220 0.500000 0.000000 0.500000
-0.237121 0.657022 -0.009844 0.500000 0.500000 0.000000
0.155458 -0.150195 0.127902 1.000000 0.000000 0.000000
-0.237121 -0.443774 -0.258879 0.500000 0.500000 0.000000
0.112918 -0.190386 -0.426645 0.000000 0.500000 0.500000
0.270031 -0.819135 -0.401504 0.800000 0.200000 0.500000
0.259434 0.296259 0.489685 0.600000 0.300000 0.000000
-0.260173 0.493185 0.027529 0.500000 0.500000 0.000000
-0.260173 -0.212369 0.067700 0.500000 0.500000 0.000000
-0.005864 -0.333496 -0.449698 0.000000 0.500000 0.500000
0.030501 -0.150195 -0.221012 1.000000 0.000000 0.000000
0.145447 -0.167484 -0.180520 1.000000 0.000000 0.000000
0.270031 -0.633947 -0.252403 0.800000 0.200000 0.500000
-0.237121 -0.166864 -0.292217 0.500000 0.500000 0.000000
-0.012475 0.700821 -0.069022 0.600000 0.000000 0.300000
0.270031 0.474334 0.288692 0.500000 0.000000 0.500000
0.177173 -0.421933 0.455107 0.600000 0.300000 0.000000
0.270031 -0.706804 0.219825 0.800000 0.200000 0.500000
0.087800 0.630041 0.481113 0.600000 0.300000 0.000000
0.270031 0.399027 -0.195460 0.500000 0.000000 0.500000
0.177821 -0.381721 0.425827 0.000000 0.500000 0.500000
-0.260173 0.446979 0.287748 0.500000 0.500000 0.000000
0.270031 -0.598891 -0.492365 0.500000 0.000000 0.500000
0.136910 0.305672 0.455107 0.600000 0.300000 0.000000
0.270031 -0.546092 -0.489591 0.500000 0.000000 0.500000
0.212400 0.474524 0.453525 0.500000 0.000000 0.500000
0.110412 0.612247 -0.461224 0.000000 0.500000 0.500000
-0.142177 0.264229 -0.478513 0.000000 0.500000 0.500000
0.064297 0.715787 0.489685 0.600000 0.300000 0.000000
0.246978 0.327302 -0.158864 0.500000 0.000000 0.500000
0.012261 0.214801 -0.326332 0.000000 1.000000 0.000000
0.246978 0.294722 -0.502170 0.500000 0.000000 0.500000
-0.210271 0.480584 -0.478513 0.000000 0.500000 0.500000
0.177821 -0.153689 0.411784 1.000000 0.000000 0.000000
0.135748 -0.461910 -0.426645 0.000000 0.500000 0.500000
-0.260173 0.009799 -0.033157 0.500000 0.500000 0.000000
0.200874 -0.518877 0.123721 0.300000 0.000000 0.600000
0.099872 -0.520953 -0.343002 0.000000 0.000000 1.000000
0.021052 0.758451 0.447287 0.600000 0.000000 0.300000
0.151467 0.723873 -0.329975 0.600000 0.000000 0.300000
0.222608 -0.567058 0.033540 0.300000 0.600000 0.000000
0.270031 -0.664848 -0.363743 0.800000 0.200000 0.500000
0.270031 -0.048712 0.151931 0.500000 0.000000 0.500000
-0.260173 0.178838 -0.047363 0.500000 0.500000 0.000000
-0.104431 -0.520953 0.266697 0.000000 0.000000 1.000000
-0.257403 0.407880 0.489685 0.600000 0.300000 0.000000
-0.260173 0.264553 -0.386009 0.500000 0.500000 0.000000
-0.129569 0.350802 0.432054 0.600000 0.300000 0.000000
-0.020560 0.331984 -0.426645 0.000000 0.500000 0.500000
0.134598 0.599472 0.481652 0.600000 0.300000 0.000000
0.270031 -0.195948 -0.194854 0.500000 0.000000 0.500000
-0.068579 -0.167484 0.387295 1.000000 0.000000 0.000000
-0.237121 0.744758 0.129579 0.500000 0.500000 0.000000
-0.202542 0.154800 0.425101 0.000000 0.000000 1.000000
0.246978 -0.251243 0.351214 0.500000 0.000000 0.500000
-0.237121 -0.090401 0.240194 0.500000 0.500000 0.000000
-0.182460 0.118725 0.455107 0.500000 0.500000 0.000000
-0.166775 -0.231328 0.455107 0.600000 0.300000 0.000000
0.246978 -0.133695 0.115207 0.500000 0.000000 0.500000
0.246978 -0.075992 0.303011 0.500000 0.000000 0.500000
-0.260173 -0.827769 -0.365660 0.300000 0.000000 0.600000
0.058231 0.467008 -0.426645 0.000000 0.500000 0.500000
0.068251 0.723873 -0.172082 0.600000 0.000000 0.300000
0.270031 -0.714827 -0.015919 0.800000 0.200000 0.500000
-0.105409 -0.567058 -0.414369 0.300000 0.600000 0.000000
0.246978 0.744667 -0.243993 0.500000 0.000000 0.500000
-0.260173 0.143595 -0.273310 0.500000 0.500000 0.000000
0.200874 -0.462112 0.316934 0.300000 0.000000 0.600000
-0.220117 0.645997 -0.461224 0.000000 0.500000 0.500000
-0.237121 -0.611891 0.187407 0.500000 0.500000 0.000000
-0.260173 -0.366610 0.054827 0.500000 0.500000 0.000000
0.246978 -0.505261 -0.384485 0.500000 0.000000 0.500000
-0.260173 -0.112539 0.293612 0.500000 0.500000 0.000000
-0.237121 0.145443 0.118583 0.500000 0.500000 0.000000
-0.140980 -0.261957 0.489685 0.600000 0.300000 0.000000
-0.237121 -0.520552 0.167879 0.500000 0.500000 0.000000
0.200874 0.250859 -0.250583 0.300000 0.000000 0.600000
0.134698 -0.520953 -0.028037 0.000000 0.000000 1.000000
0.270031 0.519790 -0.239482 0.500000 0.000000 0.500000
0.270031 0.510603 -0.293501 0.500000 0.000000 0.500000
-0.129939 0.197511 0.208828 0.000000 1.000000 0.000000
-0.053396 -0.567058 0.283692 0.300000 0.600000 0.000000
-0.056082 -0.567058 -0.139689 0.300000 0.600000 0.000000
0.246978 -0.357911 0.126456 0.500000 0.000000 0.500000
-0.075593 0.723873 -0.282105 0.600000 0.000000 0.300000
-0.204242 -0.567058 -0.062753 0.300000 0.600000 0.000000
0.010375 0.669447 -0.513092 0.800000 0.200000 0.500000
0.272912 0.193948 0.482589 0.600000 0.300000 0.000000
-0.029210 -0.497901 0.391235 0.000000 0.000000 1.000000
-0.237121 -0.348870 0.207679 0.500000 0.500000 0.000000
-0.063048 0.348960 0.432054 0.600000 0.300000 0.000000
0.200874 -0.118271 0.002903 0.600000 0.300000 0.000000
-0.260173 -0.138811 -0.377617 0.500000 0.500000 0.000000
-0.237121 -0.221198 -0.411464 0.500000 0.500000 0.000000
0.104887 -0.505597 -0.426646 0.000000 0.000000 1.000000
-0.031512 0.669950 -0.461224 0.000000 0.500000 0.500000
-0.183807 -0.602781 -0.513092 0.600000 0.000000 0.300000
0.272912 -0.456769 0.459888 0.600000 0.300000 0.000000
-0.191016 -0.124796 0.017057 1.000000 0.000000 0.000000
-0.191016 0.347494 -0.433418 0.000000 1.000000 0.000000
-0.260173 -0.216202 0.138496 0.500000 0.500000 0.000000
0.068736 0.700821 -0.086719 0.600000 0.000000 0.300000
-0.089903 0.723873 -0.089222 0.600000 0.000000 0.300000
-0.260173 -0.779983 0.132343 0.300000 0.000000 0.600000
-0.191016 -0.086749 -0.268949 1.000000 0.000000 0.000000
0.270031 -0.183202 0.295913 0.500000 0.000000 0.500000
0.071793 -0.567058 -0.065341 0.300000 0.600000 0.000000
0.270031 -0.459467 -0.414718 0.500000 0.000000 0.500000
0.130797 0.483500 0.432054 0.600000 0.300000 0.000000
-0.260173 0.725988 0.393224 0.500000 0.500000 0.000000
-0.006035 -0.047224 0.432054 0.600000 0.300000 0.000000
0.127595 -0.080839 -0.478513 0.000000 0.500000 0.500000
-0.260173 0.434846 0.002272 0.500000 0.500000 0.000000
-0.222515 -0.624689 0.423313 0.000000 0.000000 1.000000
0.270031 -0.610880 0.189584 0.500000 0.000000 0.500000
-0.158738 -0.497901 0.213721 0.000000 0.000000 1.000000
0.225840 0.498513 -0.461224 0.000000 0.500000 0.500000
0.246978 -0.560322 -0.327724 0.500000 0.000000 0.500000
0.177821 0.587121 0.430571 0.000000 0.500000 0.500000
0.133875 0.177086 -0.426645 0.000000 0.500000 0.500000
-0.080365 -0.520953 0.177152 0.000000 0.000000 1.000000
0.270031 0.623498 0.041543 0.500000 0.000000 0.500000
0.270031 0.301328 0.026666 0.500000 0.000000 0.500000
0.270031 -0.768089 -0.270462 0.800000 0.200000 0.500000
0.045794 0.214801 -0.189626 0.000000 1.000000 0.000000
-0.009024 0.452004 -0.449698 0.000000 0.500000 0.500000
0.270031 -0.414285 -0.477337 0.500000 0.000000 0.500000
-0.067144 0.387471 -0.426645 0.000000 0.500000 0.500000
-0.260173 0.211526 0.061324 0.500000 0.500000 0.000000
0.228600 -0.588874 -0.461224 0.000000 0.500000 0.500000
-0.237121 -0.266733 -0.473574 0.500000 0.500000 0.000000
-0.177115 0.289721 -0.069953 0.000000 1.000000 0.000000
-0.084623 0.055461 0.472396 0.600000 0.300000 0.000000
-0.072808 0.234410 -0.426645 0.000000 0.500000 0.500000
-0.191016 0.655766 -0.052578 0.500000 0.500000 0.000000
0.107752 0.442207 0.472396 0.600000 0.300000 0.000000
0.217191 0.137574 0.455107 0.600000 0.300000 0.000000
0.270031 -0.360108 0.356218 0.500000 0.000000 0.500000
-0.082390 -0.520953 -0.158097 0.000000 0.000000 1.000000
0.246978 0.207350 -0.093558 0.500000 0.000000 0.500000
-0.167964 0.236841 0.448414 0.500000 0.500000 0.000000
-0.237121 0.283973 -0.176644 0.500000 0.500000 0.000000
0.215096 0.242047 0.455107 0.500000 0.000000 0.500000
-0.129096 0.214801 0.160627 0.000000 1.000000 0.000000
0.270031 0.663804 -0.124450 0.500000 0.000000 0.500000
-0.237121 -0.161658 -0.097947 0.500000 0.500000 0.000000
-0.260173 0.424271 0.075683 0.500000 0.500000 0.000000
-0.167964 -0.090639 0.433551 0.600000 0.300000 0.000000
-0.077119 -0.305686 -0.478513 0.000000 0.500000 0.500000
0.200874 0.629558 0.170046 0.600000 0.000000 0.300000
0.270031 0.172126 0.106689 0.500000 0.000000 0.500000
0.200874 -0.083538 -0.398188 1.000000 0.000000 0.000000
-0.191585 -0.567058 -0.248228 0.300000 0.600000 0.000000
0.172039 -0.567058 0.330785 0.300000 0.600000 0.000000
0.046174 0.758294 -0.513092 0.800000 0.200000 0.500000
-0.260173 0.191394 -0.322806 0.500000 0.500000 0.000000
-0.237121 -0.483745 0.135226 0.500000 0.500000 0.000000
-0.193155 0.459887 0.489685 0.600000 0.300000 0.000000
0.116564 0.366397 0.472396 0.600000 0.300000 0.000000
-0.237121 0.050909 0.417523 0.500000 0.500000 0.000000
0.177821 -0.126090 0.300896 0.600000 0.300000 0.000000
0.246978 0.422557 -0.111441 0.500000 0.000000 0.500000
0.246978 0.003281 -0.070149 0.500000 0.000000 0.500000
0.270031 -0.268325 -0.457843 0.500000 0.000000 0.500000
0.166810 0.458462 -0.426645 0.000000 0.500000 0.500000
-0.260173 0.557296 -0.086563 0.500000 0.500000 0.000000
0.070672 -0.606893 0.420528 0.300000 0.600000 0.000000
-0.242283 0.758451 -0.361479 0.500000 0.500000 0.000000
0.155535 -0.567058 -0.235157 0.300000 0.600000 0.000000
-0.071084 0.700821 -0.377504 0.600000 0.000000 0.300000
0.270031 0.404892 -0.370766 0.500000 0.000000 0.500000
0.200874 -0.508508 0.223789 0.300000 0.000000 0.600000
-0.260173 0.479380 -0.093061 0.500000 0.500000 0.000000
-0.237121 0.192984 0.351460 0.500000 0.500000 0.000000
0.049389 0.498018 0.472396 0.600000 0.300000 0.000000
-0.271699 0.181504 0.445685 0.000000 0.000000 1.000000
0.191309 -0.386062 0.374423 0.000000 0.500000 0.500000
-0.237121 -0.305299 0.063571 0.500000 0.500000 0.000000
0.246978 -0.619917 0.399574 0.500000 0.000000 0.500000
0.155765 0.700821 -0.405098 0.600000 0.000000 0.300000
-0.270737 0.259015 0.420528 0.000000 0.000000 1.000000
-0.030806 -0.671031 0.311030 0.600000 0.300000 0.000000
-0.221280 -0.794022 -0.513092 0.600000 0.000000 0.300000
-0.237121 0.263762 0.003414 0.500000 0.500000 0.000000
0.013792 0.525940 -0.478513 0.000000 0.500000 0.500000
-0.063681 -0.167484 -0.255690 1.000000 0.000000 0.000000
-0.122881 0.214801 -0.229502 0.000000 1.000000 0.000000
0.054453 -0.520953 -0.333314 0.000000 0.000000 1.000000
0.171705 0.051098 -0.426645 0.000000 0.500000 0.500000
-0.107126 0.381104 -0.461224 0.000000 0.500000 0.500000
-0.109642 -0.158914 0.455107 0.600000 0.300000 0.000000
0.246978 -0.182205 -0.113528 0.500000 0.000000 0.500000
0.109918 -0.150195 0.379239 1.000000 0.000000 0.000000
0.270031 -0.825117 -0.074126 0.800000 0.200000 0.500000
0.200874 -0.119981 -0.136559 0.600000 0.300000 0.000000
0.018827 -0.216817 -0.426645 0.000000 0.500000 0.500000
-0.085666 0.664234 -0.513092 0.800000 0.200000 0.500000
0.270031 0.240896 0.336084 0.500000 0.000000 0.500000
0.240675 0.230103 -0.478513 0.000000 0.500000 0.500000
-0.260173 -0.780157 -0.126832 0.300000 0.000000 0.600000
-0.260173 0.570234 -0.347280 0.500000 0.500000 0.000000
0.079411 -0.150195 0.089754 1.000000 0.000000 0.000000
-0.186396 0.197511 0.083078 0.000000 1.000000 0.000000
0.082267 0.194822 -0.478513 0.000000 0.500000 0.500000
0.270031 -0.634054 -0.014488 0.800000 0.200000 0.500000
-0.096893 -0.159059 -0.449698 0.000000 0.500000 0.500000
0.270031 0.161712 -0.405670 0.500000 0.000000 0.500000
0.246978 0.591626 -0.184517 0.500000 0.000000 0.500000
-0.023106 -0.568001 0.455107 0.600000 0.300000 0.000000
-0.244698 -0.393809 0.489685 0.600000 0.300000 0.000000
0.177821 -0.122163 -0.303556 0.600000 0.300000 0.000000
-0.015708 0.197511 0.118703 0.000000 1.000000 0.000000
0.212400 -0.278546 0.442296 0.500000 0.000000 0.500000
-0.021635 -0.146426 -0.449698 0.000000 0.500000 0.500000
-0.260173 0.403698 0.136504 0.500000 0.500000 0.000000
-0.167964 -0.331488 0.416390 0.500000 0.500000 0.000000
-0.237121 0.356705 0.275216 0.500000 0.500000 0.000000
0.225091 0.555035 0.489685 0.600000 0.300000 0.000000
0.270031 -0.512584 -0.267029 0.500000 0.000000 0.500000
-0.237121 -0.446037 0.175855 0.500000 0.500000 0.000000
-0.154207 0.167332 0.455107 0.600000 0.300000 0.000000
-0.221804 -0.634529 -0.513092 0.600000 0.000000 0.300000
-0.156431 -0.587425 0.455107 0.300000 0.600000 0.000000
-0.237121 -0.344576 0.394508 0.500000 0.500000 0.000000
-0.237121 0.518499 0.208834 0.500000 0.500000 0.000000
0.049152 -0.616044 0.463595 0.600000 0.300000 0.000000
0.076225 -0.497901 -0.053403 0.000000 0.000000 1.000000
0.043130 -0.453441 -0.426645 0.000000 0.500000 0.500000
-0.051208 0.571459 0.432054 0.600000 0.300000 0.000000
-0.237121 0.449591 -0.159051 0.500000 0.500000 0.000000
0.200874 -0.116168 0.048798 0.600000 0.300000 0.000000
0.246978 -0.487954 -0.475378 0.500000 0.000000 0.500000
0.246978 0.230048 -0.398914 0.500000 0.000000 0.500000
-0.145148 0.380370 0.489685 0.600000 0.300000 0.000000
0.045084 0.157909 -0.426645 0.000000 0.500000 0.500000
-0.032373 -0.567058 -0.254042 0.300000 0.600000 0.000000
0.094508 -0.567058 -0.437566 0.300000 0.600000 0.000000
0.270031 0.049006 0.386561 0.500000 0.000000 0.500000
0.003186 0.337034 0.432054 0.600000 0.300000 0.000000
0.021076 -0.520953 -0.045766 0.000000 0.000000 1.000000
0.177821 -0.224891 -0.410526 1.000000 0.000000 0.000000
0.057715 0.067337 -0.426645 0.000000 0.500000 0.500000
-0.137264 0.214801 -0.005519 0.000000 1.000000 0.000000
0.073140 0.720851 0.420528 0.600000 0.000000 0.300000
0.246978 0.337510 0.257903 0.500000 0.000000 0.500000
0.246978 -0.175590 -0.033953 0.500000 0.000000 0.500000
-0.040294 0.749807 0.482780 0.600000 0.300000 0.000000
-0.260173 -0.638528 -0.472011 0.300000 0.000000 0.600000
-0.243300 -0.074260 0.489685 0.600000 0.300000 0.000000
0.246978 -0.458107 -0.210594 0.500000 0.000000 0.500000
-0.179341 -0.532479 0.332238 0.000000 0.000000 1.000000
-0.260173 0.259891 -0.255658 0.500000 0.500000 0.000000
0.198388 0.723873 -0.105895 0.600000 0.000000 0.300000
-0.015014 -0.567058 -0.065478 0.300000 0.600000 0.000000
-0.136363 -0.520953 -0.184073 0.000000 0.000000 1.000000
-0.203232 -0.567058 0.399826 0.300000 0.600000 0.000000
-0.149799 -0.497901 0.396379 0.000000 0.000000 1.000000
-0.019521 0.197511 -0.247763 0.000000 1.000000 0.000000
-0.198783 0.370763 0.489685 0.600000 0.300000 0.000000
0.246978 -0.460284 0.336088 0.500000 0.000000 0.500000
-0.010749 0.203652 0.455107 0.600000 0.300000 0.000000
-0.196415 -0.567058 0.217216 0.300000 0.600000 0.000000
-0.237337 0.700935 0.455107 0.000000 0.000000 1.000000
0.246978 -0.033795 -0.468651 0.500000 0.000000 0.500000
0.062253 0.588469 -0.449698 0.000000 0.500000 0.500000
-0.192960 -0.168326 0.455107 0.600000 0.300000 0.000000
-0.144220 -0.567058 -0.013797 0.300000 0.600000 0.000000
-0.239311 -0.464344 0.455107 0.600000 0.300000 0.000000
0.111719 -0.018357 0.472396 0.600000 0.300000 0.000000
-0.230820 0.459374 0.455107 0.600000 0.300000 0.000000
-0.260173 0.089414 -0.003461 0.500000 0.500000 0.000000
-0.119222 -0.150195 -0.324975 1.000000 0.000000 0.000000
-0.191016 -0.374775 -0.385448 0.000000 1.000000 0.000000
0.270031 -0.656771 0.135126 0.800000 0.200000 0.500000
-0.260173 -0.428902 -0.060872 0.500000 0.500000 0.000000
0.270031 -0.005222 0.160189 0.500000 0.000000 0.500000
-0.157091 -0.167484 0.112090 1.000000 0.000000 0.000000
-0.260173 0.517690 -0.304064 0.500000 0.500000 0.000000
-0.167964 0.610787 0.294181 0.500000 0.500000 0.000000
-0.070186 0.264121 -0.461224 0.000000 0.500000 0.500000
0.177821 -0.152752 0.173084 0.600000 0.300000 0.000000
-0.271699 -0.578048 0.438672 0.000000 0.000000 1.000000
-0.142307 -0.567058 -0.363885 0.300000 0.600000 0.000000
0.229399 0.669671 0.455107 0.600000 0.300000 0.000000
0.270031 0.454980 -0.480089 0.500000 0.000000 0.500000
-0.241386 -0.301593 0.489685 0.600000 0.300000 0.000000
-0.061475 0.723873 -0.441558 0.600000 0.000000 0.300000
0.156054 -0.567058 -0.027323 0.300000 0.600000 0.000000
-0.237121 -0.533347 -0.119009 0.500000 0.500000 0.000000
0.205278 0.756698 -0.478513 0.800000 0.200000 0.500000
-0.237121 -0.212219 -0.014593 0.500000 0.500000 0.000000
0.253629 0.758451 0.113679 0.500000 0.000000 0.500000
-0.212742 -0.123250 -0.461224 0.000000 0.500000 0.500000
0.272912 0.414853 0.489256 0.600000 0.300000 0.000000
0.246978 0.021577 -0.326603 0.500000 0.000000 0.500000
0.177821 -0.121355 -0.196873 0.600000 0.300000 0.000000
-0.191016 -0.506234 0.280542 0.000000 0.000000 1.000000
0.192607 -0.554758 -0.461224 0.000000 0.500000 0.500000
-0.000992 -0.167484 -0.060147 1.000000 0.000000 0.000000
0.071668 -0.411072 0.432054 0.600000 0.300000 0.000000
0.270031 0.391670 0.172997 0.500000 0.000000 0.500000
-0.192663 0.700821 -0.302050 0.600000 0.000000 0.300000
0.185971 -0.349371 0.489685 0.600000 0.300000 0.000000
0.205083 0.031661 -0.461224 0.000000 0.500000 0.500000
0.181147 -0.158159 -0.461224 0.000000 0.500000 0.500000
0.020805 -0.601567 0.420528 0.300000 0.600000 0.000000
0.200874 0.625139 -0.309697 0.600000 0.000000 0.300000
-0.191016 0.650114 -0.416376 0.000000 1.000000 0.000000
0.221262 0.659429 -0.461224 0.000000 0.500000 0.500000
-0.237121 0.346530 0.134678 0.500000 0.500000 0.000000
0.246978 -0.614696 -0.167899 0.500000 0.000000 0.500000
-0.128257 -0.520953 0.326104 0.000000 0.000000 1.000000
0.246978 -0.512047 0.011400 0.500000 0.000000 0.500000
-0.191016 0.603188 0.008720 0.500000 0.500000 0.000000
0.054532 -0.696630 -0.513092 0.600000 0.000000 0.300000
0.118953 -0.380111 -0.426645 0.000000 0.500000 0.500000
-0.008986 -0.520953 0.138151 0.000000 0.000000 1.000000
0.246978 -0.014377 0.071422 0.500000 0.000000 0.500000
-0.181735 -0.412053 0.455107 0.500000 0.500000 0.000000
0.246978 -0.611480 0.281501 0.500000 0.000000 0.500000
-0.260173 -0.173212 -0.335221 0.500000 0.500000 0.000000
-0.260173 0.333889 -0.051526 0.500000 0.500000 0.000000
0.246978 -0.343273 -0.029723 0.500000 0.000000 0.500000
0.183324 0.289721 0.202902 0.300000 0.000000 0.600000
0.157782 0.687702 0.455107 0.600000 0.300000 0.000000
0.224145 -0.089227 -0.461224 0.000000 0.500000 0.500000
0.252834 0.758451 -0.333937 0.500000 0.000000 0.500000
-0.237121 -0.204660 0.310254 0.500000 0.500000 0.000000
-0.065692 -0.514069 0.455107 0.600000 0.300000 0.000000
0.011256 -0.081315 0.472396 0.600000 0.300000 0.000000
0.064691 0.197511 -0.054976 0.000000 1.000000 0.000000
0.270031 -0.328708 -0.170710 0.500000 0.000000 0.500000
-0.237121 0.576490 -0.176017 0.500000 0.500000 0.000000
0.140304 0.247638 0.455107 0.600000 0.300000 0.000000
0.196552 0.718969 0.455107 0.600000 0.000000 0.300000
0.163299 -0.567058 -0.366486 0.300000 0.600000 0.000000
0.270031 -0.786525 -0.330362 0.800000 0.200000 0.500000
0.261130 0.749807 0.487755 0.600000 0.300000 0.000000
-0.260173 -0.795743 0.305737 0.300000 0.000000 0.600000
-0.025702 -0.150195 -0.368337 1.000000 0.000000 0.000000
0.066045 0.214801 -0.405421 0.000000 1.000000 0.000000
-0.087248 -0.167484 -0.089179 1.000000 0.000000 0.000000
0.052506 -0.497901 0.050727 0.000000 0.000000 1.000000
0.270031 -0.511776 0.129480 0.500000 0.000000 0.500000
-0.028932 -0.520953 -0.307446 0.000000 0.000000 1.000000
0.095971 -0.567058 0.122107 0.300000 0.600000 0.000000
0.244699 -0.543615 0.489685 0.600000 0.300000 0.000000
0.270031 -0.390294 -0.107168 0.500000 0.000000 0.500000
-0.260173 -0.247257 0.169683 0.500000 0.500000 0.000000
-0.001020 -0.404501 -0.478513 0.000000 0.500000 0.500000
0.110799 -0.497901 0.395076 0.000000 0.000000 1.000000
-0.260173 -0.712982 0.024591 0.300000 0.000000 0.600000
-0.237121 0.565550 -0.266240 0.500000 0.500000 0.000000
-0.019029 0.197511 0.052603 0.000000 1.000000 0.000000
0.054062 0.446162 0.432054 0.600000 0.300000 0.000000
-0.130313 -0.567058 -0.303274 0.300000 0.600000 0.000000
-0.029161 -0.276235 0.432054 0.600000 0.300000 0.000000
0.232110 0.168684 -0.478513 0.000000 0.500000 0.500000
0.177821 0.401856 0.409041 0.000000 0.500000 0.500000
0.270031 -0.190784 0.252116 0.500000 0.000000 0.500000
-0.191016 -0.117058 0.310789 1.000000 0.000000 0.000000
0.246978 -0.090503 -0.334937 0.500000 0.000000 0.500000
-0.053139 0.700821 -0.311506 0.600000 0.000000 0.300000
0.246978 0.385574 -0.501926 0.500000 0.000000 0.500000
0.246978 -0.149433 -0.319975 0.500000 0.000000 0.500000
0.035574 -0.150818 0.432054 0.600000 0.300000 0.000000
-0.017706 0.460481 0.472396 0.600000 0.300000 0.000000
0.270031 -0.776249 -0.487662 0.800000 0.200000 0.500000
0.177821 -0.483846 -0.070943 0.300000 0.000000 0.600000
