ply
format ascii 1.0
element vertex 1262
property float x
property float y
property float z
property uchar red
property uchar green
property uchar blue
end_header
-0.237121 -0.090094 -0.228181 127 127 0
0.177821 0.628915 -0.029264 153 0 76
0.017414 -0.167484 -0.064438 255 0 0
0.246978 -0.427268 -0.284034 127 0 127
0.070082 0.536012 -0.426645 0 127 127
-0.260173 -0.233177 -0.455265 127 127 0
-0.237121 -0.132470 0.417654 0 0 255
0.141784 -0.543009 -0.461224 0 127 127
-0.191016 0.096458 -0.420140 0 255 0
0.246978 -0.186147 -0.245831 127 0 127
0.246978 0.189582 -0.155502 127 0 127
-0.260173 -0.767116 -0.190383 76 0 153
-0.160855 0.233151 0.455107 127 127 0
0.116120 -0.188812 0.472396 153 76 0
0.270031 -0.467449 0.112616 127 0 127
-0.041313 -0.167484 -0.173855 255 0 0
0.187448 -0.167484 -0.067584 153 76 0
0.270031 0.562308 -0.333621 127 0 127
0.270031 -0.821888 -0.379153 204 51 127
-0.167964 0.242110 -0.444362 0 127 127
-0.167964 -0.398453 -0.448764 0 255 0
-0.260173 0.371819 -0.015489 127 127 0
0.169484 -0.567058 0.258199 76 153 0
-0.009538 -0.167484 -0.009998 255 0 0
-0.237121 0.528136 -0.134141 127 127 0
-0.242916 0.744905 0.489685 153 76 0
-0.237121 -0.135177 -0.321847 127 127 0
0.246978 -0.579913 0.420212 127 0 127
-0.237121 0.143505 0.246573 127 127 0
0.247401 -0.454523 0.455107 153 76 0
-0.042798 0.084388 -0.478513 0 127 127
0.177821 0.627132 0.349865 153 0 76
-0.055769 0.563204 -0.449698 0 127 127
-0.019081 -0.066735 0.432054 153 76 0
0.039514 -0.019171 0.472396 153 76 0
-0.237121 -0.475374 -0.406817 127 127 0
0.236863 0.398346 0.420528 127 0 127
-0.167964 -0.123573 0.067424 255 0 0
-0.191016 -0.496727 0.179494 0 0 255
-0.150845 0.582738 -0.461224 0 127 127
-0.017305 0.214801 -0.341340 0 255 0
0.270031 -0.270141 0.366975 127 0 127
0.145310 -0.167484 -0.341192 255 0 0
0.160117 0.057998 0.455107 153 76 0
-0.167964 -0.082824 -0.322776 255 0 0
0.246092 -0.605923 -0.513091 127 0 127
0.049278 0.749807 0.465642 153 76 0
0.101275 -0.434878 0.432054 153 76 0
-0.043972 -0.520953 0.081413 0 0 255
-0.167964 -0.087455 -0.165143 255 0 0
-0.043993 -0.601413 0.455107 153 76 0
-0.143148 0.754863 -0.478513 204 51 127
0.261341 0.112737 -0.513091 127 0 127
0.064691 -0.520953 0.149085 0 0 255
0.160550 -0.150195 -0.247709 255 0 0
-0.118350 0.758451 0.448085 153 0 76
0.018254 0.532471 -0.478513 0 127 127
0.270031 -0.224869 -0.138124 127 0 127
0.116145 0.126338 0.432054 153 76 0
-0.221705 0.064441 0.455107 0 0 255
-0.023725 0.341359 0.472396 153 76 0
-0.084968 -0.542784 -0.478513 0 127 127
0.181270 -0.221309 -0.478513 0 127 127
-0.175945 0.371745 -0.369014 0 255 0
0.067489 -0.167484 0.003445 255 0 0
0.154801 -0.150195 0.164532 255 0 0
-0.237121 0.427759 -0.278108 127 127 0
0.128991 0.333520 -0.461224 0 127 127
-0.074266 -0.520953 0.253046 0 0 255
-0.014760 -0.110593 -0.426645 0 127 127
0.270031 -0.324060 0.105290 127 0 127
0.270031 -0.262941 -0.201405 127 0 127
0.145033 0.610949 -0.461224 0 127 127
0.105376 -0.349291 -0.426645 0 127 127
0.270031 0.014227 -0.458806 127 0 127
-0.260173 -0.236277 -0.191193 127 127 0
0.246978 0.432746 -0.383756 127 0 127
-0.260173 0.489086 -0.059300 127 127 0
0.200874 -0.116403 0.077820 153 76 0
-0.173073 0.700821 -0.280974 153 0 76
0.268682 0.207886 -0.513091 127 0 127
-0.237121 0.646255 -0.344353 127 127 0
0.270031 -0.045480 0.068860 127 0 127
-0.191016 0.202799 0.224013 0 255 0
-0.025708 -0.150195 -0.214078 255 0 0
0.177821 0.624987 -0.331442 153 0 76
0.246978 -0.617342 -0.076754 127 0 127
0.246978 0.344924 0.141607 127 0 127
-0.260173 -0.438747 0.006593 127 127 0
-0.260173 0.082002 0.317050 127 127 0
-0.260173 -0.625096 -0.101518 127 127 0
-0.191016 0.630861 0.109722 127 127 0
-0.260173 -0.127674 0.094186 127 127 0
0.270031 0.528287 0.296714 127 0 127
0.246978 -0.523723 0.054329 127 0 127
-0.042180 0.197511 0.150764 0 255 0
-0.050054 -0.379702 0.472396 153 76 0
0.270031 -0.793310 0.152624 204 51 127
0.270031 0.511042 0.231206 127 0 127
0.246978 0.632011 -0.219393 127 0 127
0.122128 0.625422 -0.513091 204 51 127
-0.109286 -0.167484 0.050975 255 0 0
-0.237121 -0.462709 -0.288637 127 127 0
0.034998 0.214801 -0.108385 0 255 0
0.270031 -0.266519 0.070449 127 0 127
-0.091305 -0.121967 0.472396 153 76 0
-0.180244 0.157976 -0.478513 0 127 127
0.243304 -0.000340 0.489685 153 76 0
-0.228049 0.751831 -0.513091 127 127 0
0.164589 -0.104681 -0.449698 0 127 127
0.104889 -0.520953 -0.141660 0 0 255
-0.191016 0.221040 -0.334167 0 255 0
-0.260173 0.562891 0.149757 127 127 0
0.218054 -0.495097 -0.478513 0 127 127
0.192203 -0.167484 -0.118133 153 76 0
-0.167964 0.152504 0.415170 153 76 0
-0.060075 -0.167484 -0.076797 255 0 0
-0.084193 -0.567058 -0.079779 76 153 0
-0.100009 0.373785 -0.478513 0 127 127
0.225792 0.714783 0.420528 127 0 127
0.031623 -0.520953 0.335718 0 0 255
-0.079557 0.723873 -0.451190 153 0 76
0.246978 0.261387 -0.106739 127 0 127
-0.103828 0.260243 -0.426645 0 127 127
0.027948 -0.167484 0.335568 255 0 0
-0.062347 0.367651 0.472396 153 76 0
0.177821 -0.366503 0.378989 0 127 127
0.025062 0.700821 -0.427272 153 0 76
-0.237121 0.684671 0.413665 0 0 255
-0.237121 0.495258 0.225864 127 127 0
0.221662 -0.567058 -0.283481 76 153 0
-0.095860 0.197511 0.181202 0 255 0
0.199184 -0.075275 -0.101671 153 76 0
-0.159694 -0.167484 0.121087 255 0 0
-0.100553 -0.770308 0.311030 153 76 0
-0.239196 -0.496533 0.489685 153 76 0
-0.073879 -0.167484 0.202539 255 0 0
0.246978 0.724041 -0.293504 153 0 76
-0.237121 0.448673 0.192282 127 127 0
0.270031 0.332164 0.221792 127 0 127
0.020848 0.117665 -0.449698 0 127 127
0.085544 0.533908 0.472396 153 76 0
0.165410 -0.366224 -0.478513 0 127 127
0.270031 -0.298514 0.215884 127 0 127
-0.125153 -0.167484 -0.023535 255 0 0
-0.260173 0.097086 -0.402307 127 127 0
0.235847 0.533834 0.455107 127 0 127
0.079585 0.723873 -0.149951 153 0 76
0.256590 0.277765 0.420528 127 0 127
0.071030 0.197511 -0.365298 0 255 0
0.058707 -0.570250 0.489685 153 76 0
0.270031 -0.189079 -0.185660 127 0 127
-0.260173 0.084043 0.082606 127 127 0
-0.182828 0.137794 -0.369014 0 255 0
0.181546 0.098933 -0.478513 0 127 127
-0.237121 -0.622742 -0.278230 76 0 153
-0.237121 -0.392441 -0.111899 127 127 0
0.270031 0.206783 0.163757 127 0 127
-0.002964 -0.560899 0.489685 153 76 0
0.212784 0.101144 0.455107 153 76 0
-0.237121 0.004308 0.323892 127 127 0
-0.019255 -0.520953 -0.326451 0 0 255
-0.263054 0.202486 0.480647 153 76 0
0.246978 0.404593 -0.247245 127 0 127
0.134598 0.095261 0.488658 153 76 0
0.183779 0.700821 -0.077957 153 0 76
-0.000268 -0.235873 0.472396 153 76 0
-0.124610 0.415779 0.432054 153 76 0
0.169968 0.723873 -0.358186 153 0 76
0.270031 -0.124618 0.063742 127 0 127
-0.023922 -0.567058 0.083213 76 153 0
0.270031 0.313235 -0.455544 127 0 127
-0.271699 -0.214698 0.448830 153 76 0
0.246978 0.286190 0.067895 127 0 127
-0.260173 -0.777811 0.222119 76 0 153
-0.260173 0.518592 0.387991 127 127 0
-0.049364 0.217600 -0.461224 0 127 127
-0.047372 0.214801 -0.204934 0 255 0
-0.191016 0.627888 0.291726 127 127 0
0.003686 0.681810 -0.478513 0 127 127
0.051864 0.602422 0.432054 153 76 0
0.023606 0.239178 0.472396 153 76 0
0.053112 -0.067961 0.432054 153 76 0
0.235672 -0.266828 0.420528 127 0 127
0.183615 -0.567058 0.173913 76 153 0
0.246978 0.396627 -0.193322 127 0 127
0.270031 -0.557860 -0.223547 127 0 127
0.270031 0.425190 0.029119 127 0 127
0.232202 0.674007 -0.461224 0 127 127
-0.021915 -0.687069 0.311030 153 76 0
0.270031 0.245371 0.007698 127 0 127
0.062791 -0.490364 -0.449698 0 127 127
0.006063 -0.567058 0.025086 76 153 0
0.200874 0.074063 -0.390762 255 0 0
-0.260173 -0.574686 -0.046192 127 127 0
0.196507 0.585559 0.278782 153 0 76
-0.259652 -0.334354 0.489685 153 76 0
-0.194497 0.700821 -0.141039 153 0 76
-0.237121 0.405252 0.152131 127 127 0
-0.108467 -0.442463 0.472396 153 76 0
-0.155884 0.723873 -0.401657 153 0 76
0.001583 -0.012016 0.432054 153 76 0
-0.036289 0.149984 0.432054 153 76 0
-0.167964 0.583361 -0.395869 0 255 0
0.197393 0.321611 -0.478513 0 127 127
0.246978 -0.211863 -0.317919 127 0 127
0.165086 -0.477925 0.455107 153 76 0
-0.237121 -0.183634 0.171152 127 127 0
-0.237121 0.552854 0.065029 127 127 0
0.221287 -0.085913 -0.478513 0 127 127
-0.068743 0.754595 -0.513091 204 51 127
0.091588 0.694756 0.517282 76 0 153
0.270031 0.079575 0.354518 127 0 127
0.270031 -0.494838 -0.224702 127 0 127
0.152499 -0.074900 0.432054 153 76 0
-0.237121 -0.614143 0.064143 127 127 0
-0.260173 0.124923 -0.030278 127 127 0
-0.127218 -0.520953 0.348644 0 0 255
0.270031 -0.744026 -0.120904 204 51 127
-0.223033 -0.404020 0.489685 153 76 0
-0.260173 -0.042102 0.216376 127 127 0
0.270031 -0.796469 0.089255 204 51 127
-0.007476 -0.150195 -0.131552 255 0 0
0.156153 0.411179 -0.478513 0 127 127
-0.255440 0.342830 0.455107 153 76 0
-0.237121 0.255118 -0.432395 127 127 0
0.163196 -0.520953 -0.317003 0 0 255
-0.237121 -0.192836 -0.391306 127 127 0
0.177821 0.628418 -0.184971 153 0 76
0.200874 0.283741 -0.308762 76 0 153
-0.237121 -0.302209 0.023825 127 127 0
-0.237121 -0.044722 0.281743 127 127 0
-0.114206 -0.167484 0.244126 255 0 0
-0.237121 0.182823 -0.320868 127 127 0
-0.260173 0.419906 -0.362386 127 127 0
0.184506 0.723873 -0.295376 153 0 76
0.270031 -0.308885 -0.195068 127 0 127
0.177821 -0.300946 -0.431673 0 127 127
-0.067276 0.214801 -0.291271 0 255 0
-0.258593 -0.296326 0.420528 0 0 255
-0.260173 -0.766180 0.138802 76 0 153
-0.260173 0.006442 0.180915 127 127 0
-0.237121 -0.306305 -0.313109 127 127 0
0.027432 -0.150195 0.013928 255 0 0
-0.237121 0.631323 0.264699 127 127 0
-0.003644 0.591987 -0.478513 0 127 127
0.042099 0.214801 0.265685 0 255 0
0.281557 0.629867 0.421100 127 0 127
0.244393 -0.232792 0.455107 153 76 0
-0.050449 0.669196 0.489685 153 76 0
0.183344 -0.075275 0.264619 153 76 0
-0.191016 -0.453539 -0.306795 0 0 255
0.019719 0.214801 -0.393436 0 255 0
-0.164859 -0.028984 -0.478513 0 127 127
0.093494 -0.081319 -0.461224 0 127 127
-0.191016 0.231224 0.264249 0 255 0
-0.237121 0.288186 0.184408 127 127 0
0.217745 -0.117348 0.455107 153 76 0
0.128207 -0.193416 -0.426645 0 127 127
0.044785 -0.520953 0.277142 0 0 255
0.191204 0.700821 -0.231560 153 0 76
-0.167964 0.486237 -0.437436 0 255 0
-0.182676 0.443922 0.455107 127 127 0
-0.173385 0.320202 -0.478513 0 127 127
-0.233469 0.034917 0.420528 0 0 255
-0.260173 0.240226 -0.145047 127 127 0
0.194973 -0.167484 0.045863 153 76 0
-0.193248 0.380629 0.489685 153 76 0
0.233196 0.492527 0.489685 153 76 0
-0.116843 -0.327700 0.432054 153 76 0
-0.111770 0.197511 -0.013001 0 255 0
0.151096 0.699311 0.420528 153 0 76
0.251496 0.283147 -0.513091 127 0 127
-0.260173 0.717513 -0.193469 127 127 0
-0.187848 0.197511 -0.135071 0 255 0
-0.014219 -0.517957 0.455107 153 76 0
-0.237121 -0.166383 0.382607 127 127 0
-0.018090 -0.150195 -0.288781 255 0 0
0.014726 -0.336580 0.432054 153 76 0
0.270031 -0.364309 0.010010 127 0 127
0.270031 0.304889 -0.181422 127 0 127
0.270031 0.462387 0.213131 127 0 127
0.248648 -0.781260 -0.513091 204 51 127
0.170720 0.723873 -0.425548 153 0 76
-0.237121 0.514136 -0.244862 127 127 0
-0.260173 -0.550436 -0.415186 127 127 0
0.270031 -0.705493 -0.196724 204 51 127
-0.237121 -0.471476 0.307981 127 127 0
0.100549 -0.136200 0.455107 153 76 0
-0.237121 -0.520382 -0.205886 127 127 0
0.172704 0.576059 0.489685 153 76 0
-0.132166 0.620137 -0.511659 204 51 127
0.161854 -0.626394 -0.513091 153 0 76
0.246978 0.112855 0.285069 127 0 127
0.110600 0.035616 0.472396 153 76 0
0.212400 -0.168976 0.421541 127 0 127
-0.157969 -0.501281 -0.478513 0 127 127
-0.260173 -0.369977 -0.479457 127 127 0
-0.214089 0.406149 0.455107 0 0 255
-0.158531 0.330572 0.455107 153 76 0
-0.237121 0.659260 -0.266557 127 127 0
-0.191016 0.556932 0.410485 127 127 0
0.063105 0.333106 0.472396 153 76 0
-0.087531 -0.520953 0.022138 0 0 255
0.200874 0.492419 -0.441886 255 0 0
-0.237121 -0.594763 0.417057 127 127 0
-0.054840 -0.698410 -0.513091 153 0 76
0.270031 0.566533 0.131924 127 0 127
0.228203 -0.143287 -0.461224 0 127 127
-0.260173 0.213328 0.285965 127 127 0
0.110039 0.709233 -0.513091 204 51 127
-0.008455 0.723873 -0.326190 153 0 76
0.246978 0.047032 -0.477842 127 0 127
0.270031 -0.574347 -0.012910 127 0 127
-0.237121 0.178124 -0.472865 127 127 0
0.270031 0.456388 -0.006713 127 0 127
0.246978 -0.044793 -0.202660 127 0 127
0.107950 -0.278581 -0.449698 0 127 127
0.177055 -0.567058 -0.378248 76 153 0
-0.260173 0.441192 0.099812 127 127 0
-0.237121 0.571179 0.339347 127 127 0
0.196426 -0.075275 0.109520 153 76 0
-0.133830 0.032792 -0.449698 0 127 127
0.270031 0.540033 -0.203184 127 0 127
-0.039031 0.005078 0.472396 153 76 0
-0.234902 -0.357189 0.455107 0 0 255
0.065634 0.262150 -0.426645 0 127 127
-0.109027 0.208474 0.432054 0 255 0
-0.237121 -0.413610 0.390369 127 127 0
-0.260173 0.614511 0.160199 127 127 0
-0.237121 -0.340812 0.193526 127 127 0
-0.237121 0.393314 -0.138806 127 127 0
-0.082204 0.214801 -0.080813 0 255 0
-0.048898 -0.104362 0.432054 153 76 0
-0.260173 -0.510376 -0.354200 127 127 0
0.134598 -0.096293 0.468885 153 76 0
0.177821 -0.483154 -0.162596 76 0 153
0.060526 -0.270959 -0.426645 0 127 127
-0.260173 -0.260131 0.191003 127 127 0
0.270031 -0.545407 0.153511 127 0 127
0.270031 0.457109 0.307397 127 0 127
0.117361 -0.567058 0.245428 76 153 0
-0.063792 -0.567058 -0.016498 76 153 0
-0.006051 0.381847 0.432054 153 76 0
-0.237121 -0.238364 -0.511426 127 127 0
0.195768 -0.263892 0.489685 153 76 0
0.200874 0.621405 0.210048 153 0 76
-0.029183 -0.052992 -0.449698 0 127 127
-0.111873 -0.520953 0.191464 0 0 255
-0.016332 -0.797444 -0.513091 153 0 76
0.177821 0.413729 -0.428490 255 0 0
0.089188 -0.718493 0.311030 153 76 0
-0.260173 0.626227 0.300800 127 127 0
-0.237121 0.364860 -0.258990 127 127 0
0.246978 0.243672 -0.455717 127 0 127
-0.237121 0.084286 -0.031221 127 127 0
-0.167964 -0.522097 -0.432965 0 0 255
-0.237121 -0.342142 0.262778 127 127 0
-0.203163 -0.567058 -0.328439 76 153 0
-0.237121 0.290454 0.308311 127 127 0
0.270031 -0.097421 0.112178 127 0 127
0.270031 -0.037601 0.321167 127 0 127
-0.042817 0.261468 -0.461224 0 127 127
0.034757 -0.150195 0.089512 255 0 0
-0.189236 -0.532479 0.359916 127 127 0
0.030696 -0.225370 -0.478513 0 127 127
0.069812 -0.167484 -0.332947 255 0 0
-0.167964 0.367688 -0.449559 0 255 0
-0.082308 -0.489208 0.479973 153 76 0
-0.092902 0.182492 -0.426645 0 127 127
0.066877 0.197511 0.408449 0 255 0
-0.087860 -0.092615 -0.449698 0 127 127
-0.260173 0.608338 -0.094007 127 127 0
-0.070182 0.115763 -0.449698 0 127 127
0.003401 0.589231 0.455107 153 76 0
0.030830 -0.520953 -0.264676 0 0 255
-0.028718 -0.567058 -0.332229 76 153 0
-0.237121 0.699897 0.160993 127 127 0
0.178834 -0.167484 -0.166575 255 0 0
0.178223 0.276846 0.455107 153 76 0
0.051521 -0.520953 -0.194836 0 0 255
-0.237121 0.572706 -0.061688 127 127 0
-0.260173 0.385261 0.338314 127 127 0
0.140121 0.700821 -0.234689 153 0 76
0.121474 -0.003332 0.455107 153 76 0
0.234169 0.514352 -0.461224 127 0 127
0.172946 0.419144 0.455107 153 76 0
-0.152852 0.214801 0.299575 0 255 0
-0.188354 0.666242 0.263970 127 127 0
-0.198894 0.533437 0.489685 153 76 0
0.246978 -0.173531 -0.391045 127 0 127
-0.256594 0.758451 0.024293 127 127 0
-0.237121 -0.551095 0.012944 127 127 0
-0.208443 -0.254369 -0.461224 0 127 127
-0.260173 0.712701 -0.382034 127 127 0
-0.191016 0.204395 -0.218908 0 255 0
0.270031 -0.073833 0.366261 127 0 127
0.236460 0.738114 0.455107 153 76 0
-0.167964 -0.489608 -0.240388 0 0 255
0.246978 0.350858 0.007861 127 0 127
0.099497 0.482645 -0.478513 0 127 127
0.270031 0.591997 -0.086437 127 0 127
-0.020884 0.214801 0.338374 0 255 0
0.270031 0.308523 0.367598 127 0 127
0.246978 0.440460 0.404402 127 0 127
-0.182536 0.698168 -0.513091 204 51 127
-0.128190 -0.497901 0.384179 0 0 255
0.142856 -0.150195 -0.091114 255 0 0
0.248504 0.385827 0.489685 153 76 0
0.173706 0.657502 0.455107 153 76 0
-0.237121 -0.175027 -0.130731 127 127 0
-0.260173 -0.344000 -0.044658 127 127 0
-0.042011 -0.003746 -0.449698 0 127 127
0.080499 0.214801 -0.293964 0 255 0
0.038146 -0.781010 0.311030 153 76 0
0.246978 0.093341 0.081781 127 0 127
-0.167964 0.588403 0.247059 127 127 0
0.253137 -0.053117 0.455107 153 76 0
-0.021096 -0.167484 -0.092940 255 0 0
-0.228192 -0.542139 -0.461224 0 127 127
-0.237121 0.467948 0.058645 127 127 0
-0.023872 0.197511 -0.073938 0 255 0
0.107051 0.083887 0.432054 153 76 0
-0.260173 -0.774273 -0.408065 76 0 153
0.246978 0.077708 -0.253698 127 0 127
0.230360 -0.816465 0.311030 153 76 0
-0.260173 -0.161546 -0.509408 127 127 0
-0.191016 -0.472366 0.381327 127 127 0
-0.191016 0.625433 0.031766 127 127 0
0.246978 -0.099148 0.398990 127 0 127
-0.091046 0.500474 -0.449698 0 127 127
0.072454 -0.520953 0.006466 0 0 255
0.265639 0.702873 -0.513091 127 0 127
0.041379 -0.587665 0.420528 76 153 0
0.160121 -0.567058 -0.009039 76 153 0
-0.237121 -0.475871 0.254684 127 127 0
-0.047908 -0.259817 0.432054 153 76 0
-0.237121 0.061630 0.221976 127 127 0
-0.164572 0.700821 -0.079698 153 0 76
0.163485 0.214801 0.365522 0 255 0
-0.183349 0.238203 0.489685 153 76 0
0.121647 -0.520953 -0.191759 0 0 255
-0.191016 -0.148883 -0.051286 255 0 0
-0.049753 -0.185642 0.432054 153 76 0
-0.237121 -0.397955 0.067521 127 127 0
-0.260173 -0.356068 -0.374722 127 127 0
-0.152166 -0.150195 -0.296710 255 0 0
0.177873 0.700821 -0.186490 153 0 76
0.246978 -0.315394 0.021821 127 0 127
0.124665 0.197511 -0.004823 0 255 0
0.195522 -0.511730 0.455107 0 127 127
0.248004 0.361214 -0.513091 127 0 127
-0.013749 -0.520953 0.045218 0 0 255
-0.260173 -0.586455 0.337431 127 127 0
0.103379 -0.567058 -0.120078 76 153 0
0.178516 0.666242 0.032130 153 0 76
-0.260173 -0.781996 0.016739 76 0 153
0.185774 0.289721 0.210811 76 0 153
-0.140901 -0.205262 -0.478513 0 127 127
0.010288 0.115037 0.472396 153 76 0
-0.215739 -0.135208 -0.461224 0 127 127
-0.144752 0.604765 -0.426645 0 127 127
0.246978 0.236264 0.405226 127 0 127
0.200874 -0.362682 -0.407561 255 0 0
0.270031 -0.266860 -0.134830 127 0 127
-0.156228 -0.167484 0.209105 255 0 0
-0.189938 0.289721 0.218058 0 255 0
-0.018170 0.700821 -0.154760 153 0 76
-0.237121 0.448511 0.379872 127 127 0
0.200874 0.658105 0.171287 153 0 76
0.102314 -0.253174 0.472396 153 76 0
-0.054540 0.331251 -0.426645 0 127 127
0.036215 -0.520953 -0.116524 0 0 255
-0.191016 0.285737 0.059292 0 255 0
-0.237121 -0.407228 0.319829 127 127 0
0.270031 -0.374062 -0.345748 127 0 127
-0.238865 0.679985 0.455107 153 76 0
0.150542 0.747013 0.489685 153 76 0
0.200874 -0.489397 -0.217044 76 0 153
0.246978 0.240554 0.051067 127 0 127
0.200874 -0.234970 -0.409248 255 0 0
-0.119963 0.054681 0.455107 153 76 0
0.246978 0.033197 0.036677 127 0 127
-0.205961 -0.616044 0.478724 153 76 0
0.270031 -0.761915 0.002202 204 51 127
-0.237121 -0.293155 0.332477 127 127 0
-0.237121 0.378004 -0.490879 127 127 0
-0.189738 -0.075275 0.234495 255 0 0
-0.076410 0.167902 0.432054 153 76 0
0.079449 -0.282400 0.432054 153 76 0
0.246978 -0.463796 0.406713 127 0 127
0.246978 -0.147063 0.008090 127 0 127
-0.260173 0.708127 -0.126027 127 127 0
0.246978 -0.400861 -0.455422 127 0 127
-0.188302 0.289721 0.143321 0 255 0
0.270031 -0.357679 0.314956 127 0 127
0.212400 0.184747 0.454530 127 0 127
0.270031 0.598504 0.055388 127 0 127
0.177821 0.053507 0.410647 0 127 127
0.200874 -0.511746 0.383805 0 127 127
0.111298 -0.048197 0.432054 153 76 0
-0.167964 0.647888 -0.002407 127 127 0
0.270031 0.162729 0.079621 127 0 127
-0.191016 0.230810 0.029059 0 255 0
-0.152151 -0.567058 0.288508 76 153 0
0.163175 0.044669 -0.426645 0 127 127
-0.113810 -0.403137 0.432054 153 76 0
0.200874 -0.504768 0.092555 76 0 153
-0.072702 -0.218082 0.472396 153 76 0
0.051655 -0.309911 -0.478513 0 127 127
-0.237121 -0.622702 -0.467098 127 127 0
0.270031 -0.419368 0.382321 127 0 127
-0.172474 0.666242 -0.101469 127 127 0
0.142991 -0.567058 0.309175 76 153 0
0.272912 0.671826 0.489645 153 76 0
0.168481 -0.618731 0.311030 153 76 0
0.281557 0.492201 0.450320 153 76 0
-0.202542 -0.488342 0.454064 127 127 0
-0.186578 0.289721 0.270949 0 255 0
-0.219449 -0.699164 -0.513091 153 0 76
0.240344 -0.616107 0.455107 127 0 127
-0.118362 0.236710 0.472396 153 76 0
0.249664 0.163453 0.420528 127 0 127
0.028370 -0.567058 -0.136820 76 153 0
0.091352 -0.119674 -0.426645 0 127 127
-0.237121 0.352333 0.274768 127 127 0
0.168023 -0.300368 0.455107 153 76 0
-0.260173 0.614495 -0.314610 127 127 0
0.200874 -0.486385 0.253329 76 0 153
-0.237121 -0.108705 -0.000633 127 127 0
0.008951 0.046677 -0.478513 0 127 127
0.270031 0.309895 0.185486 127 0 127
-0.013987 -0.316539 0.472396 153 76 0
-0.260173 0.307726 0.383805 127 127 0
0.246978 0.361387 -0.263462 127 0 127
-0.191016 0.664519 0.073573 127 127 0
0.257827 -0.106028 0.455107 153 76 0
0.270031 -0.576786 0.223823 127 0 127
-0.159456 -0.520953 0.259394 0 0 255
-0.039098 0.723873 -0.376774 153 0 76
0.177821 -0.480822 -0.340761 0 0 255
0.246978 0.664305 -0.076013 127 0 127
0.086144 0.197511 -0.241123 0 255 0
0.114451 -0.001162 -0.461224 0 127 127
0.246978 0.739546 0.263815 127 0 127
0.246978 0.109134 -0.432223 127 0 127
-0.084721 0.197511 -0.384414 0 255 0
-0.003178 -0.633747 -0.513091 153 0 76
-0.137733 -0.784356 -0.513091 153 0 76
-0.237121 0.117493 -0.274370 127 127 0
0.246978 0.662887 -0.263342 127 0 127
-0.237121 -0.079202 0.141028 127 127 0
0.270031 0.415323 -0.314910 127 0 127
0.047839 -0.024773 -0.426645 0 127 127
0.094018 0.259850 -0.461224 0 127 127
0.281557 0.129797 0.429691 127 0 127
-0.237121 0.322821 -0.185396 127 127 0
-0.188026 -0.167484 -0.338258 255 0 0
-0.260173 0.221258 0.389068 127 127 0
-0.098098 0.581723 0.432054 153 76 0
-0.260173 0.137696 -0.096475 127 127 0
-0.237121 -0.398058 0.147974 127 127 0
0.161947 -0.070502 -0.426645 255 0 0
0.026093 0.214938 -0.449698 0 127 127
0.143406 0.700821 -0.381659 153 0 76
-0.037888 -0.497901 0.184518 0 0 255
0.181786 -0.058118 0.455107 153 76 0
-0.237121 0.093634 -0.232457 127 127 0
0.045682 -0.567058 0.037225 76 153 0
-0.237121 -0.301732 -0.500743 127 127 0
0.058733 0.723873 -0.114822 153 0 76
-0.213186 0.318457 0.455107 0 0 255
-0.260173 -0.688570 -0.298467 76 0 153
-0.221056 -0.561295 -0.496576 127 127 0
-0.237121 0.484190 0.156212 127 127 0
-0.085344 -0.262505 -0.426645 0 127 127
-0.260173 -0.027897 -0.494540 127 127 0
-0.022956 -0.413342 0.472396 153 76 0
0.246978 0.003873 0.242075 127 0 127
0.037374 0.491867 0.432054 153 76 0
0.270031 -0.567278 -0.315366 127 0 127
0.083036 -0.172715 -0.478513 0 127 127
0.246978 0.168490 -0.360996 127 0 127
0.177821 -0.407285 0.414603 0 127 127
-0.153627 -0.321782 0.455107 153 76 0
0.046928 0.105275 -0.478513 0 127 127
0.246978 -0.477496 -0.037084 127 0 127
-0.039521 -0.098840 -0.461224 0 127 127
-0.237121 0.559454 -0.451228 0 127 127
0.177821 0.586200 -0.151527 153 0 76
-0.219949 -0.322893 0.489685 153 76 0
-0.056813 0.214801 0.359947 0 255 0
-0.155084 -0.167484 -0.113526 255 0 0
-0.024453 -0.591549 0.420528 76 153 0
-0.124561 -0.536713 0.455107 153 76 0
0.178831 0.361646 0.374424 0 127 127
-0.223296 -0.220594 0.489685 153 76 0
0.177821 0.509680 0.454086 0 127 127
0.270031 0.547688 0.065745 127 0 127
-0.260173 -0.179613 -0.035852 127 127 0
-0.231147 0.623123 0.455107 153 76 0
0.146592 0.666242 -0.430018 0 127 127
-0.260173 -0.216532 0.031437 127 127 0
-0.260173 -0.572637 -0.097584 127 127 0
-0.052099 -0.567058 0.216643 76 153 0
-0.089091 0.197511 0.037177 0 255 0
0.177821 -0.483200 0.412024 153 76 0
-0.260173 0.258228 -0.487061 127 127 0
0.270031 0.099124 -0.334373 127 0 127
-0.059948 -0.150195 0.055822 255 0 0
0.200874 0.120643 -0.404947 255 0 0
-0.025695 0.452210 -0.449698 0 127 127
-0.121238 0.169923 0.472396 153 76 0
-0.072458 -0.169759 -0.426645 0 127 127
0.177821 0.303333 -0.413273 255 0 0
-0.157323 -0.301104 -0.449698 0 127 127
0.109283 0.128341 -0.426645 0 127 127
0.270031 -0.695362 -0.343928 204 51 127
0.055505 -0.098411 -0.461224 0 127 127
-0.191016 0.279873 0.410009 127 127 0
0.200874 -0.477573 -0.106718 76 0 153
0.246978 0.352190 -0.067798 127 0 127
0.086716 0.713097 0.455107 153 0 76
-0.005831 -0.357351 -0.461224 0 127 127
-0.065052 0.311841 0.432054 153 76 0
-0.260173 0.068890 0.017007 127 127 0
0.246978 0.752539 0.111277 127 0 127
0.035556 -0.065442 -0.426645 0 127 127
0.246978 0.738025 -0.062793 127 0 127
0.177821 -0.118616 -0.346070 153 76 0
0.270031 -0.445992 -0.496089 127 0 127
0.030496 -0.167484 -0.261447 255 0 0
0.018229 0.628129 -0.478513 0 127 127
0.177821 0.515821 0.413284 0 127 127
0.135415 -0.167484 -0.301903 255 0 0
-0.183232 0.197511 0.331541 0 255 0
-0.158247 0.687310 0.489685 153 76 0
0.177821 -0.145594 0.208557 153 76 0
-0.237121 0.141842 0.187513 127 127 0
0.271099 -0.075055 0.489685 153 76 0
-0.215443 -0.003590 0.420528 0 0 255
-0.237121 0.724239 0.343519 127 127 0
0.119175 -0.499317 -0.478513 0 127 127
-0.237121 -0.197960 0.249160 127 127 0
0.177821 -0.127550 0.318614 153 76 0
-0.260173 0.719202 -0.061409 127 127 0
0.246978 -0.533820 -0.164667 127 0 127
-0.086750 0.197511 -0.214602 0 255 0
0.246978 -0.042830 -0.326098 127 0 127
0.246978 -0.269500 -0.361097 127 0 127
0.246978 -0.195151 0.004157 127 0 127
0.246978 0.550215 -0.433555 127 0 127
0.191497 0.013658 -0.478513 0 127 127
-0.236705 -0.050705 0.489685 153 76 0
0.153729 0.247462 0.489685 153 76 0
0.270031 0.257682 -0.251417 127 0 127
-0.225731 -0.587440 0.455107 153 76 0
-0.191016 -0.526448 -0.400091 0 255 0
-0.183856 -0.075275 -0.243568 255 0 0
-0.260173 0.247446 -0.030937 127 127 0
0.135056 0.686017 0.455107 153 0 76
-0.093063 -0.497901 -0.200163 0 0 255
0.251038 0.050820 0.455107 127 0 127
-0.056703 -0.520953 0.152942 0 0 255
-0.177752 -0.567058 0.340271 76 153 0
0.246978 0.675881 -0.423723 127 0 127
-0.185502 0.036076 0.489685 153 76 0
-0.101507 -0.520953 -0.016919 0 0 255
-0.260173 -0.249143 -0.032332 127 127 0
0.200874 0.619883 -0.230205 153 0 76
-0.167964 0.591812 0.061217 127 127 0
-0.258111 -0.775986 -0.513091 76 0 153
-0.097396 -0.072209 0.472396 153 76 0
-0.237121 0.139688 -0.349098 127 127 0
-0.260173 -0.831636 0.146036 76 0 153
0.127420 0.214801 0.203109 0 255 0
0.270031 -0.578793 0.340281 127 0 127
-0.237121 -0.111303 -0.287944 127 127 0
-0.040204 0.175203 0.472396 153 76 0
0.175697 -0.567058 -0.433385 76 153 0
-0.260173 -0.630045 -0.237419 76 0 153
0.031671 -0.520953 0.418874 153 76 0
0.044918 -0.246772 0.472396 153 76 0
0.077774 0.318991 -0.449698 0 127 127
0.058073 0.723873 -0.303168 153 0 76
0.108772 -0.520953 0.181125 0 0 255
0.221320 -0.567058 -0.202127 76 153 0
-0.237121 0.092276 0.284275 127 127 0
0.164845 -0.567058 0.395335 76 153 0
-0.260173 0.419675 -0.479998 127 127 0
-0.010643 -0.520953 -0.390320 0 0 255
0.270031 0.282151 -0.394169 127 0 127
-0.058490 0.091860 0.455107 153 76 0
0.270031 0.045031 -0.303316 127 0 127
0.012428 0.412380 0.472396 153 76 0
0.102827 -0.520953 0.115234 0 0 255
0.114397 0.382753 0.432054 153 76 0
0.270031 -0.767017 -0.243785 204 51 127
-0.260173 -0.441814 -0.480915 127 127 0
-0.196768 0.751361 -0.478513 204 51 127
0.159805 0.738693 -0.513091 204 51 127
-0.014803 -0.520953 -0.152889 0 0 255
-0.076032 -0.549019 0.455107 76 153 0
0.270031 -0.293161 0.334064 127 0 127
-0.171382 -0.567058 -0.362853 76 153 0
-0.134730 -0.497901 0.316635 0 0 255
0.270031 -0.679212 0.187610 204 51 127
0.161047 -0.173067 0.489685 153 76 0
-0.033332 -0.431692 -0.426645 0 127 127
0.066873 -0.522954 -0.426645 0 127 127
-0.012531 0.701460 0.455107 153 0 76
-0.070117 -0.567058 -0.215730 76 153 0
-0.117739 0.136578 0.432054 153 76 0
-0.167964 -0.191409 0.416875 127 127 0
0.246978 0.028189 -0.373724 127 0 127
-0.260173 -0.035713 -0.022492 127 127 0
0.246978 0.481450 -0.216403 127 0 127
0.270031 -0.629584 -0.308832 204 51 127
-0.135455 -0.008088 0.455107 153 76 0
0.246978 -0.001451 0.378530 127 0 127
-0.237121 -0.097752 0.064084 127 127 0
0.246978 0.312601 0.308343 127 0 127
-0.260173 0.200269 -0.038882 127 127 0
0.016636 0.214801 0.361706 0 255 0
-0.150307 0.197511 0.056077 0 255 0
0.128189 0.197511 -0.354717 0 255 0
-0.237121 0.511170 -0.481488 0 127 127
0.246978 0.192630 -0.103086 127 0 127
-0.147786 -0.167484 -0.383566 255 0 0
-0.182233 0.558778 0.455107 153 76 0
0.097299 -0.551713 0.455107 153 76 0
0.134598 -0.422714 0.475541 153 76 0
-0.241848 0.263976 0.489685 153 76 0
-0.260173 0.667931 0.331499 127 127 0
0.199177 0.666242 -0.049427 153 0 76
-0.159564 0.154596 0.489685 153 76 0
-0.034000 -0.520953 -0.017513 0 0 255
0.270031 0.143428 0.342454 127 0 127
0.281557 0.341655 0.446752 153 76 0
-0.152300 -0.567058 0.166453 76 153 0
0.158656 -0.167484 -0.015317 153 76 0
0.246978 0.174221 0.040121 127 0 127
-0.252176 -0.405655 0.455107 153 76 0
0.134941 0.061056 -0.449698 0 127 127
-0.237121 0.172402 -0.018918 127 127 0
-0.237121 0.017247 0.064792 127 127 0
-0.091098 -0.487880 -0.449698 0 127 127
-0.260173 -0.525830 -0.287448 127 127 0
-0.260173 -0.520458 0.093302 127 127 0
0.270031 -0.799654 -0.106012 204 51 127
-0.166097 -0.253493 0.455107 153 76 0
-0.237121 0.484078 0.330849 127 127 0
0.147717 -0.567058 -0.061141 76 153 0
0.270031 -0.630606 -0.019195 204 51 127
-0.237121 0.364106 0.199196 127 127 0
0.243635 -0.583261 -0.478513 127 0 127
-0.071892 0.197511 0.281271 0 255 0
-0.190615 -0.075275 -0.086148 255 0 0
0.246978 -0.359293 -0.053939 127 0 127
0.009036 -0.593619 -0.513091 153 0 76
-0.071338 -0.603531 -0.513091 153 0 76
-0.130415 0.538829 -0.449698 0 127 127
0.246978 0.716055 -0.017149 127 0 127
-0.237121 0.249532 -0.269610 127 127 0
0.246978 0.237595 -0.203533 127 0 127
-0.130668 -0.163465 -0.426646 0 127 127
-0.139014 0.628311 0.432054 153 76 0
-0.260173 -0.429679 -0.401023 127 127 0
0.246978 0.131702 -0.125177 127 0 127
0.046447 -0.567058 0.386850 76 153 0
0.177821 -0.227395 0.412518 0 127 127
-0.092421 -0.520953 0.292915 0 0 255
0.244405 0.402912 -0.461224 127 0 127
0.270031 -0.496991 -0.478229 127 0 127
0.231875 0.612805 -0.461224 127 0 127
0.270031 0.411038 -0.058256 127 0 127
-0.032782 -0.814504 0.311030 153 76 0
-0.237121 0.089733 -0.329782 127 127 0
-0.237121 -0.074380 0.213816 127 127 0
-0.039925 0.622013 -0.513091 204 51 127
0.051184 0.169267 -0.449698 0 127 127
0.166930 -0.771784 0.311030 153 76 0
0.203339 0.551328 -0.461224 0 127 127
-0.167964 -0.517255 -0.310195 0 0 255
-0.149963 -0.073346 -0.478513 0 127 127
-0.237121 -0.603727 0.140353 127 127 0
0.071466 0.567889 0.432054 153 76 0
-0.235291 0.719759 0.455107 0 0 255
-0.140488 -0.581560 0.455107 76 153 0
0.048976 -0.567058 0.114148 76 153 0
0.270031 -0.668017 -0.147412 204 51 127
-0.207933 0.673611 -0.478513 0 127 127
-0.078580 0.709929 0.492621 76 0 153
-0.237121 0.226229 -0.229995 127 127 0
0.091645 0.197511 -0.110271 0 255 0
-0.260173 -0.425076 0.095756 127 127 0
-0.189867 -0.451796 -0.004972 0 0 255
0.099099 0.197511 0.366983 0 255 0
0.177821 0.003423 -0.386737 255 0 0
0.158313 -0.583574 -0.478513 0 127 127
0.252267 -0.285121 0.455107 127 0 127
-0.237121 0.020556 -0.038045 127 127 0
0.252090 0.758451 0.183680 127 0 127
-0.260173 0.068093 -0.207726 127 127 0
-0.237121 0.515177 -0.376082 127 127 0
0.246978 0.505209 -0.275411 127 0 127
0.159858 -0.453582 -0.426645 0 127 127
0.058244 0.197511 -0.325818 0 255 0
0.270031 0.212560 -0.283752 127 0 127
-0.237121 0.447968 -0.020572 127 127 0
0.248083 -0.352697 0.455107 153 76 0
-0.068669 -0.567058 -0.116169 76 153 0
0.246978 0.002951 -0.085456 127 0 127
-0.260173 -0.718990 0.025773 76 0 153
-0.237121 0.461544 -0.421846 127 127 0
0.200874 -0.121860 -0.210371 153 76 0
-0.145959 0.723873 -0.443038 153 0 76
-0.271109 0.169791 0.420528 127 127 0
0.248074 0.414374 0.455107 127 0 127
0.200256 -0.075275 0.350184 153 76 0
0.243595 -0.221516 -0.478513 127 0 127
-0.007365 0.656535 -0.426645 0 127 127
-0.164770 0.218248 -0.478513 0 127 127
0.016123 -0.150195 -0.224909 255 0 0
0.125941 0.468824 0.455107 153 76 0
0.270031 -0.013230 -0.129808 127 0 127
-0.028148 -0.167484 0.399543 255 0 0
0.248763 0.487611 -0.513091 127 0 127
0.014669 0.485662 -0.449698 0 127 127
-0.260173 -0.496547 -0.031244 127 127 0
-0.007099 -0.183504 0.432054 153 76 0
0.039125 -0.029324 0.432054 153 76 0
0.175196 -0.567058 -0.304015 76 153 0
-0.223554 0.125683 0.420528 0 0 255
0.270031 0.503570 -0.386040 127 0 127
0.177821 -0.479375 0.192685 76 0 153
0.014726 0.669741 0.455107 153 76 0
0.180507 -0.567058 0.110096 76 153 0
-0.260173 0.318904 0.236445 127 127 0
0.108306 0.672108 0.489685 153 76 0
-0.017342 0.069739 -0.449698 0 127 127
-0.079626 -0.623461 0.455107 76 153 0
0.213976 0.471241 0.455107 127 0 127
-0.257432 0.529646 -0.513091 127 127 0
0.200874 0.628135 0.385630 0 127 127
0.109326 -0.150195 -0.147066 255 0 0
-0.005587 0.706284 -0.513091 204 51 127
0.060787 0.723873 -0.247100 153 0 76
-0.124655 0.197511 -0.151193 0 255 0
0.050072 -0.141545 -0.449698 0 127 127
-0.260173 -0.465056 -0.170147 127 127 0
-0.150283 -0.449553 0.489685 153 76 0
0.270031 -0.349261 0.367139 127 0 127
-0.167964 0.587793 0.139848 127 127 0
0.238248 0.286504 0.455107 153 76 0
0.043718 -0.520953 0.084303 0 0 255
-0.260173 0.269444 0.344844 127 127 0
0.177821 0.288259 -0.086906 76 0 153
-0.237121 0.195623 -0.172117 127 127 0
-0.263054 0.106461 0.478012 153 76 0
-0.171217 0.289721 -0.020519 0 255 0
0.246978 -0.531718 -0.379192 127 0 127
-0.237121 0.434452 -0.226067 127 127 0
-0.191016 -0.481324 0.046312 0 0 255
-0.186292 0.666242 -0.175747 127 127 0
-0.028219 0.292797 0.472396 153 76 0
0.131138 -0.036721 -0.461224 0 127 127
-0.019887 0.497791 -0.478513 0 127 127
-0.260173 -0.106743 0.398969 127 127 0
-0.233109 -0.569797 0.489685 153 76 0
-0.118452 -0.520953 0.052368 0 0 255
0.246978 -0.210154 0.204222 127 0 127
-0.168338 -0.152808 0.489685 153 76 0
-0.237121 -0.551181 0.059237 127 127 0
0.064588 0.656730 -0.426645 0 127 127
0.270031 -0.295616 -0.278571 127 0 127
0.246978 0.755592 -0.218493 127 0 127
-0.260173 0.748030 -0.244593 127 127 0
0.246978 0.571525 -0.246154 127 0 127
-0.167964 0.102246 0.401598 127 127 0
-0.084029 0.454809 -0.461224 0 127 127
-0.160576 -0.467442 -0.426645 0 255 0
0.246978 -0.551291 0.356308 127 0 127
-0.053264 0.629767 0.432054 153 76 0
0.119105 0.518876 -0.426645 0 127 127
0.246978 0.416032 -0.506648 127 0 127
-0.175346 0.093959 0.455107 153 76 0
-0.206059 -0.567058 0.301189 76 153 0
0.281557 0.701167 0.450810 127 0 127
-0.255500 -0.163685 0.455107 153 76 0
-0.191016 -0.383192 -0.420320 0 255 0
-0.118186 0.108774 -0.478513 0 127 127
-0.093562 -0.028712 -0.461224 0 127 127
-0.260173 0.587330 -0.249335 127 127 0
0.004470 0.700821 -0.203139 153 0 76
0.270031 -0.782706 -0.343509 204 51 127
0.270031 -0.825393 0.005796 204 51 127
-0.237121 0.130971 -0.428274 127 127 0
0.102435 -0.787483 0.311030 153 76 0
0.267014 0.758451 0.411675 127 0 127
-0.054260 0.364026 -0.478513 0 127 127
-0.079235 -0.567058 0.188435 76 153 0
0.246978 0.272863 -0.069319 127 0 127
-0.008959 0.147260 -0.449698 0 127 127
-0.237121 -0.543593 -0.163648 127 127 0
-0.260173 0.721228 0.230130 127 127 0
0.179817 0.676379 -0.478513 0 127 127
0.117220 0.518800 0.455107 153 76 0
-0.081872 0.567469 -0.478513 0 127 127
-0.083947 0.693936 0.420528 153 0 76
-0.260173 -0.101234 -0.417928 127 127 0
0.068238 0.448053 0.472396 153 76 0
-0.237121 -0.150357 -0.058884 127 127 0
0.246978 0.494761 -0.072854 127 0 127
0.241663 0.640807 0.455107 127 0 127
0.104478 -0.150195 -0.042211 255 0 0
0.249076 0.758451 -0.356078 127 0 127
0.246978 0.644817 0.326040 127 0 127
0.246978 0.599818 -0.132404 127 0 127
-0.167964 -0.119842 0.021399 255 0 0
0.021147 0.214801 0.043214 0 255 0
-0.041221 -0.516082 -0.449698 0 127 127
0.064630 -0.497901 0.342150 0 0 255
0.134122 -0.364476 0.455107 153 76 0
-0.260173 -0.094385 -0.501947 127 127 0
-0.191016 -0.232504 -0.432572 0 255 0
0.236916 -0.567058 -0.432485 127 0 127
-0.237121 0.205208 0.204406 127 127 0
0.246978 -0.486839 0.350579 127 0 127
-0.237121 0.623048 -0.419066 127 127 0
0.200874 -0.076746 0.188513 153 76 0
0.043831 0.676924 -0.478513 0 127 127
0.114222 0.214801 0.260584 0 255 0
0.033642 0.043231 0.472396 153 76 0
-0.169083 0.289721 -0.288325 0 255 0
0.164840 -0.497901 0.140214 0 0 255
0.246978 -0.381311 -0.199256 127 0 127
-0.237121 -0.341571 -0.426147 127 127 0
0.134822 0.287804 0.455107 153 76 0
-0.128342 -0.286752 0.455107 153 76 0
-0.233617 0.202269 0.455107 0 0 255
0.203364 0.557440 0.455107 0 127 127
-0.260173 -0.822620 -0.354358 76 0 153
-0.237121 -0.541229 -0.056521 127 127 0
0.047631 0.723241 0.420528 153 0 76
0.212757 -0.258123 0.455107 127 0 127
-0.237121 -0.423488 -0.233391 127 127 0
-0.106410 0.692732 -0.513091 204 51 127
0.141739 -0.520953 -0.034599 0 0 255
0.125246 -0.650317 0.311030 153 76 0
-0.056691 0.196820 -0.426645 0 255 0
0.129228 -0.497901 0.401068 0 0 255
-0.191016 -0.129620 -0.282468 255 0 0
-0.101202 0.723873 -0.232382 153 0 76
-0.260173 -0.299595 -0.420032 127 127 0
-0.191016 0.614989 0.336956 127 127 0
-0.099331 -0.147816 -0.461224 0 127 127
0.134892 -0.167484 0.084815 255 0 0
0.270031 -0.610474 -0.157224 127 0 127
0.177821 0.238700 -0.091080 76 0 153
-0.124655 -0.167484 0.170906 255 0 0
-0.260173 -0.279482 -0.177836 127 127 0
-0.237121 0.331856 0.005769 127 127 0
-0.236714 -0.782858 0.311030 153 76 0
0.270031 0.675874 0.015850 127 0 127
-0.237121 -0.296655 -0.221238 127 127 0
-0.000266 -0.258375 -0.449698 0 127 127
-0.191016 -0.296498 0.410183 127 127 0
0.144484 0.214801 0.428932 153 76 0
0.020125 -0.198906 -0.449698 0 127 127
-0.010030 -0.567058 0.149400 76 153 0
0.131859 -0.387210 -0.449698 0 127 127
0.029952 -0.025829 -0.461224 0 127 127
0.270031 -0.033022 -0.068209 127 0 127
-0.127755 -0.150195 0.098039 255 0 0
-0.039487 -0.497901 0.240322 0 0 255
0.200874 0.447389 0.410513 0 127 127
0.010339 0.197511 0.108768 0 255 0
-0.164544 -0.207709 0.455107 127 127 0
-0.105210 -0.150195 0.366426 255 0 0
-0.202651 0.700821 -0.344990 153 0 76
0.135826 -0.497901 0.350155 0 0 255
-0.167964 0.190648 0.408067 127 127 0
0.200874 0.102309 0.418199 0 127 127
-0.037333 0.420528 0.432054 153 76 0
-0.058391 0.429917 0.472396 153 76 0
-0.237121 0.551617 0.406759 0 0 255
-0.260173 0.506335 0.134234 127 127 0
0.246978 -0.292917 -0.415017 127 0 127
-0.260173 0.577895 0.083626 127 127 0
0.016054 -0.497901 0.390260 0 0 255
0.246978 0.382653 0.181396 127 0 127
0.030895 0.197511 -0.159497 0 255 0
0.177821 0.235985 0.164418 76 0 153
-0.118241 0.651965 0.489685 153 76 0
0.200874 0.258749 -0.149398 76 0 153
-0.237121 -0.079466 -0.357937 127 127 0
0.121436 0.723873 -0.293670 153 0 76
0.270031 0.714984 0.057183 127 0 127
-0.260173 0.638516 -0.454901 127 127 0
0.199756 -0.167484 -0.319573 153 76 0
-0.152865 -0.520953 -0.150960 0 0 255
0.246978 0.266840 0.266931 127 0 127
-0.260173 0.493037 0.011470 127 127 0
-0.177174 0.689294 0.423276 153 0 76
0.246978 -0.117135 -0.434141 127 0 127
-0.149154 -0.520953 -0.222708 0 0 255
0.270031 0.367853 -0.438941 127 0 127
0.241251 0.110805 0.420528 127 0 127
0.246978 0.683710 0.359787 127 0 127
-0.191016 -0.487325 -0.102239 0 0 255
-0.138118 -0.567058 -0.265891 76 153 0
-0.191016 0.625226 -0.148822 127 127 0
0.241364 0.148241 0.455107 153 76 0
0.200874 -0.124694 0.394047 0 127 127
0.270031 -0.717858 -0.057634 204 51 127
-0.167964 0.285619 -0.378977 0 255 0
0.073871 -0.150195 0.274491 255 0 0
-0.260173 -0.346442 0.301947 127 127 0
-0.188561 -0.338800 -0.478513 0 127 127
-0.043123 -0.150195 0.289953 255 0 0
0.246978 0.023297 0.105920 127 0 127
0.146079 0.358787 0.455107 153 76 0
-0.191016 0.015031 0.397164 127 127 0
-0.260173 0.131950 -0.166994 127 127 0
0.177821 -0.075158 -0.388571 255 0 0
-0.170434 -0.432233 -0.369014 0 255 0
-0.260173 0.289965 -0.424407 127 127 0
-0.209023 0.620137 -0.502078 204 51 127
0.200874 0.460078 -0.410244 255 0 0
0.246978 0.379580 0.328560 127 0 127
0.263011 0.003112 0.455107 127 0 127
-0.191016 -0.163787 0.338236 255 0 0
-0.237121 0.054533 -0.348645 127 127 0
0.177821 0.615666 -0.114456 153 0 76
0.222524 -0.484245 0.455107 153 76 0
-0.133686 -0.497901 -0.030937 0 0 255
-0.260173 0.353389 0.112109 127 127 0
0.221653 0.356255 0.489685 153 76 0
-0.258935 -0.635509 0.311030 127 127 0
0.246978 0.593369 -0.422257 127 0 127
-0.260173 0.451352 -0.504296 127 127 0
0.246978 0.651540 -0.300119 127 0 127
-0.237121 -0.199400 0.207797 127 127 0
0.200699 0.472937 -0.478513 0 127 127
0.017402 -0.150195 0.422339 153 76 0
-0.146221 -0.561295 -0.496499 153 0 76
-0.260173 -0.377183 -0.227488 127 127 0
0.270031 0.068388 -0.145442 127 0 127
-0.204318 -0.567058 0.125987 76 153 0
-0.072044 -0.067072 -0.478513 0 127 127
0.228094 -0.333224 0.420528 127 0 127
0.270031 0.186972 -0.227826 127 0 127
-0.260173 -0.225130 0.124953 127 127 0
-0.037847 0.731718 -0.513091 204 51 127
0.270031 0.537659 -0.163643 127 0 127
0.181015 -0.424334 0.455107 153 76 0
0.005574 -0.567058 0.107861 76 153 0
-0.260173 0.063958 -0.452093 127 127 0
0.244456 -0.399563 0.489685 153 76 0
0.270031 0.392176 0.254968 127 0 127
-0.171365 -0.045972 0.489685 153 76 0
0.270031 -0.662495 -0.237021 204 51 127
0.125298 -0.150195 0.384079 255 0 0
0.050920 -0.548752 -0.478513 0 127 127
-0.237121 -0.228265 0.325611 127 127 0
0.108815 -0.148051 -0.449698 0 127 127
0.270031 -0.208321 -0.454013 127 0 127
-0.191102 -0.278444 0.489685 153 76 0
-0.191016 0.197573 0.162654 0 255 0
-0.208673 0.305136 -0.478513 0 127 127
-0.085820 -0.007959 0.432054 153 76 0
-0.043442 -0.444856 0.432054 153 76 0
-0.237121 0.548807 0.269622 127 127 0
-0.014212 0.378514 -0.426645 0 127 127
-0.237121 0.583178 0.300901 127 127 0
0.272912 -0.586456 0.459520 127 0 127
-0.123676 0.197511 0.244830 0 255 0
-0.035728 0.214801 -0.268646 0 255 0
-0.260173 0.005769 -0.133768 127 127 0
0.178341 0.603097 -0.478513 0 127 127
-0.124740 0.463685 0.482453 153 76 0
-0.185232 -0.404258 0.455107 127 127 0
-0.260173 -0.686300 0.098304 76 0 153
-0.191016 0.021580 -0.407508 0 255 0
-0.271699 0.270073 0.421070 0 0 255
0.270031 -0.764427 -0.040750 204 51 127
0.071526 0.445419 -0.426645 0 127 127
-0.205228 -0.053920 0.420528 0 0 255
0.061923 0.248800 0.432054 153 76 0
0.200874 -0.445186 0.399280 0 127 127
0.101433 -0.374959 0.472396 153 76 0
0.270031 0.434838 -0.472347 127 0 127
-0.260173 -0.079219 -0.047851 127 127 0
0.246978 0.111525 0.365765 127 0 127
0.243536 0.700821 -0.343809 153 0 76
0.246978 -0.546246 0.225068 127 0 127
-0.260173 -0.379653 -0.344566 127 127 0
-0.167964 -0.167286 -0.165262 255 0 0
-0.143177 -0.497901 0.191834 0 0 255
-0.237121 0.112608 0.071795 127 127 0
0.198379 0.666242 -0.405456 255 0 0
0.270031 0.654507 -0.369012 127 0 127
-0.191016 0.367919 0.403880 127 127 0
0.053843 -0.150195 -0.090161 255 0 0
0.081241 -0.567058 0.009038 76 153 0
-0.237121 -0.236472 -0.413851 127 127 0
-0.007688 0.155073 0.472396 153 76 0
0.200657 -0.288883 -0.478513 0 127 127
0.077789 -0.208293 0.432054 153 76 0
0.033390 0.040789 -0.449698 0 127 127
-0.191016 0.426111 0.392838 127 127 0
0.246978 0.397666 0.105829 127 0 127
-0.054408 0.496806 0.432054 153 76 0
-0.055577 0.723873 -0.421431 153 0 76
0.270031 0.622016 0.266827 127 0 127
0.168836 0.114567 0.489685 153 76 0
-0.151173 -0.520953 0.005401 0 0 255
-0.237121 0.726262 -0.354748 153 0 76
-0.260173 -0.809425 -0.160269 76 0 153
-0.006576 -0.567058 -0.172009 76 153 0
0.199600 -0.167484 -0.240236 153 76 0
-0.237121 0.096840 0.394798 127 127 0
-0.095269 0.197511 0.105713 0 255 0
0.071284 0.005036 -0.461224 0 127 127
-0.237121 -0.439416 -0.338677 127 127 0
-0.237121 0.358657 0.323547 127 127 0
0.246978 -0.020263 0.415882 127 0 127
-0.053904 -0.150195 0.118797 255 0 0
0.018660 -0.088433 0.472396 153 76 0
-0.191016 -0.076763 0.451669 127 127 0
-0.149818 -0.606825 -0.513091 153 0 76
0.177821 0.139737 0.415273 0 127 127
-0.260173 0.220703 0.072071 127 127 0
-0.149735 -0.120137 -0.449698 0 127 127
0.073965 -0.150195 0.054050 255 0 0
0.270031 0.665601 0.109979 127 0 127
0.246978 -0.154567 -0.426108 127 0 127
-0.237121 -0.487649 0.062279 127 127 0
-0.022695 0.722096 0.420528 153 0 76
-0.260173 -0.612236 0.275592 127 127 0
-0.260173 0.691304 -0.273754 127 127 0
0.246978 0.523425 0.404509 127 0 127
-0.260173 0.320868 -0.031854 127 127 0
0.270031 0.265487 0.118830 127 0 127
0.099155 -0.497901 -0.270811 0 0 255
0.270031 -0.441763 0.068767 127 0 127
-0.237121 -0.590186 -0.178450 127 127 0
-0.083695 -0.167484 0.399518 255 0 0
-0.237121 -0.161268 0.340481 127 127 0
0.212400 -0.595781 0.421305 127 0 127
-0.096755 -0.406295 -0.478513 0 127 127
0.246978 0.032847 -0.030599 127 0 127
-0.237121 0.535587 -0.420806 127 127 0
-0.156991 -0.520953 -0.259937 0 0 255
0.246978 -0.605723 0.259406 127 0 127
0.181478 -0.167484 0.136104 255 0 0
0.200874 -0.528736 -0.233152 76 0 153
0.246978 -0.228978 0.141601 127 0 127
-0.136496 0.706336 0.455107 153 76 0
0.089275 -0.594287 0.420528 76 153 0
0.270031 -0.192320 -0.118508 127 0 127
-0.240733 0.582885 0.455107 153 76 0
-0.124740 0.316086 0.471637 153 76 0
-0.168376 0.175748 0.455107 153 76 0
0.043870 0.178616 0.432054 153 76 0
0.246978 -0.199307 0.056593 127 0 127
-0.260173 -0.710995 -0.022563 76 0 153
0.161406 -0.151505 -0.426645 255 0 0
-0.044306 0.219835 0.472396 153 76 0
-0.260890 0.483700 0.489685 153 76 0
-0.237121 -0.225756 0.407033 0 0 255
-0.153483 -0.167484 0.326809 255 0 0
0.270031 -0.636832 0.116612 204 51 127
-0.254635 -0.271245 0.455107 153 76 0
0.270031 0.540926 0.341573 127 0 127
0.270031 -0.580500 0.139025 127 0 127
0.059136 -0.373643 -0.426645 0 127 127
-0.109799 0.197511 0.068990 0 255 0
-0.076267 0.197511 0.214787 0 255 0
0.270031 -0.303790 -0.377867 127 0 127
0.270031 0.700481 -0.178056 127 0 127
-0.181176 0.437977 -0.478513 0 127 127
0.212302 0.756213 -0.478513 204 51 127
-0.151086 -0.430919 0.455107 153 76 0
-0.260173 -0.662465 -0.113470 76 0 153
0.183517 0.700821 -0.325467 153 0 76
-0.096292 -0.167484 -0.160079 255 0 0
-0.167964 0.306908 0.395452 127 127 0
-0.237121 -0.531502 -0.122071 127 127 0
-0.260173 -0.357938 0.133997 127 127 0
0.138031 -0.567058 0.182356 76 153 0
-0.191016 0.665503 -0.258691 127 127 0
-0.260173 0.485634 -0.103193 127 127 0
0.270031 -0.830020 -0.042158 204 51 127
-0.019206 0.213730 -0.426646 0 127 127
-0.086974 -0.350554 0.472396 153 76 0
-0.038944 -0.546500 0.489685 153 76 0
-0.058099 -0.567058 -0.423596 76 153 0
0.052015 0.372377 0.472396 153 76 0
0.037934 -0.567058 0.237454 76 153 0
-0.196808 -0.076324 -0.478513 0 127 127
0.270031 0.564215 0.238109 127 0 127
0.246978 0.434452 -0.139541 127 0 127
0.051362 -0.497901 -0.367231 0 0 255
-0.260173 0.619033 0.415681 127 127 0
0.270031 -0.816665 0.272129 204 51 127
0.200838 0.278602 -0.478513 0 127 127
-0.120360 0.700821 -0.325770 153 0 76
-0.145836 0.491837 0.455107 153 76 0
0.270031 0.168729 -0.432423 127 0 127
-0.065316 -0.520953 -0.342635 0 0 255
0.212400 0.017802 0.451552 127 0 127
-0.045043 -0.136068 0.472396 153 76 0
0.246978 -0.493591 -0.171797 127 0 127
-0.260173 -0.602254 0.212382 127 127 0
-0.260173 0.216293 0.232205 127 127 0
0.087309 0.372308 -0.449698 0 127 127
-0.260173 0.080585 0.190992 127 127 0
0.116368 0.594230 0.472396 153 76 0
-0.031443 -0.289771 -0.426645 0 127 127
-0.237121 -0.298900 -0.101156 127 127 0
-0.191016 -0.161098 0.066707 255 0 0
0.024753 0.716306 0.532142 76 0 153
-0.191016 0.403956 -0.428259 0 255 0
-0.004958 -0.070476 -0.426645 0 127 127
-0.186038 0.564169 -0.478513 0 127 127
-0.237121 0.256078 -0.204665 127 127 0
-0.087773 0.286908 0.472396 153 76 0
0.190236 0.377648 0.455107 153 76 0
-0.260173 -0.250877 0.257026 127 127 0
0.034915 -0.497901 0.146959 0 0 255
0.019084 -0.567058 -0.049608 76 153 0
-0.034601 0.747678 0.489685 153 76 0
-0.189943 0.545951 0.374424 127 127 0
0.246978 0.496471 0.060385 127 0 127
0.270031 -0.350472 0.256239 127 0 127
-0.220682 -0.780422 -0.513091 153 0 76
-0.167964 -0.489769 0.093865 0 0 255
0.200874 0.389701 0.395712 0 127 127
0.186862 -0.555532 0.446449 76 153 0
0.056844 -0.585108 0.455107 153 76 0
-0.260173 -0.498670 0.411120 127 127 0
0.138415 -0.497901 -0.261160 0 0 255
0.281557 0.205601 0.448110 127 0 127
-0.062179 0.142609 0.472396 153 76 0
0.099263 0.214801 0.016945 0 255 0
0.246978 -0.443035 0.243503 127 0 127
-0.217021 -0.567058 -0.075131 76 153 0
0.270031 -0.555212 0.073919 127 0 127
0.167548 0.197511 0.003061 76 0 153
0.246978 -0.436882 0.327583 127 0 127
-0.008691 -0.532479 -0.437446 0 127 127
0.250520 0.580263 0.455107 127 0 127
0.270031 0.666544 0.183306 127 0 127
-0.225730 -0.731705 0.311030 153 76 0
0.270031 0.218113 0.316598 127 0 127
0.177966 0.657844 -0.513091 204 51 127
0.196155 0.723873 -0.159844 153 0 76
0.270031 -0.388230 0.261583 127 0 127
-0.237121 0.258915 0.227467 127 127 0
-0.260173 0.285240 0.079715 127 127 0
